# .PCD v0.7 - Point Cloud Data file format
VERSION 0.7
FIELDS x y z
SIZE 4 4 4
TYPE F F F
COUNT 1 1 1
WIDTH 1095
HEIGHT 1
VIEWPOINT 0 0 0 1 0 0 0
POINTS 1095
DATA ascii
1.0911 -0.510773 0.90509194
1.0889701 -0.538275 0.90699095
1.08846 -0.50987399 0.89625001
1.0998 -0.51400602 0.89792001
1.09677 -0.51328099 0.88907194
1.0851899 -0.49674198 0.87863618
1.09197 -0.50370699 0.88031846
1.08248 -0.49582699 0.870094
1.09056 -0.503003 0.87228638
1.08982 -0.49984601 0.86300218
1.08752 -0.50010502 0.85438865
1.0954599 -0.49247101 0.84592211
1.0865101 -0.48546001 0.83501565
1.09014 -0.49589297 0.83735907
1.08811 -0.48432401 0.82752877
1.09373 -0.49306098 0.82803428
1.09839 -0.54322499 0.94665998
1.0906 -0.53279704 0.94015795
1.0989801 -0.54176301 0.93929398
1.10137 -0.55673599 0.94146997
1.0899 -0.52046698 0.93170297
1.09241 -0.53248602 0.93202293
1.09969 -0.54123801 0.93267703
1.0977401 -0.52595598 0.923715
1.09656 -0.539837 0.92416692
1.09671 -0.53906 0.91554201
1.09603 -0.50979197 0.90477294
1.09938 -0.521878 0.90607399
1.0815899 -0.50762403 0.897928
1.08943 -0.51661301 0.89836901
1.09376 -0.528651 0.89926696
1.10093 -0.53478801 0.89777398
1.079 -0.50567001 0.88891798
1.0874801 -0.51422697 0.88987398
1.09404 -0.52674901 0.89091599
1.0925 -0.540546 0.89094996
1.09708 -0.524149 0.88295275
1.0731701 -0.495933 0.87406749
1.09154 -0.50935102 0.87311667
1.0923899 -0.52432501 0.87381476
1.08498 -0.50040603 0.86560518
1.09174 -0.51074296 0.86478996
1.08602 -0.49772999 0.85711992
1.0890499 -0.51109403 0.85658103
1.09317 -0.52140403 0.85783923
1.0768 -0.47301498 0.84897667
1.08408 -0.50075603 0.84965348
1.0894799 -0.50958401 0.8492685
1.08919 -0.49487001 0.84177703
1.09367 -0.47629502 0.83124655
1.08996 -0.49185798 0.83378404
1.08498 -0.46922401 0.82256341
1.09296 -0.475429 0.82363349
1.09743 -0.482907 0.81701636
1.08604 -0.52684599 0.95313698
1.09958 -0.51715398 0.94493502
1.1010801 -0.543585 0.94512695
1.09648 -0.53312099 0.93814695
1.10554 -0.54081798 0.93805498
1.10552 -0.55340201 0.93918592
1.10279 -0.54177898 0.93159395
1.09813 -0.55656999 0.93098801
1.10271 -0.52584302 0.92080897
1.1035501 -0.539868 0.92334694
1.0919499 -0.55914301 0.92400301
1.09656 -0.51770401 0.91433197
1.10323 -0.53836501 0.91485399
1.0968 -0.515818 0.90453196
1.10095 -0.52695101 0.90705991
1.1028501 -0.53872102 0.90520096
1.09128 -0.51647097 0.89719796
1.10104 -0.52614397 0.897816
1.10166 -0.54024601 0.89838195
1.08746 -0.56026399 0.89968401
1.1048599 -0.53611803 0.89080995
1.09803 -0.51240802 0.88195127
1.09189 -0.50145102 0.87388372
1.09553 -0.51630402 0.87467378
1.0758799 -0.49648103 0.86664277
1.09315 -0.49877498 0.86623263
1.08742 -0.5449 0.86786515
1.08135 -0.47481 0.85695261
1.0767 -0.49157399 0.85885704
1.09286 -0.49835601 0.85883963
1.10058 -0.51038098 0.85980904
1.09324 -0.528032 0.86067444
1.0665001 -0.47099099 0.84983087
1.07969 -0.47495097 0.85028428
1.0999 -0.507146 0.85161066
1.08084 -0.489362 0.84350687
1.0955501 -0.494674 0.84341574
1.09499 -0.50752604 0.84238237
1.08464 -0.48687401 0.8360762
1.0964 -0.49468601 0.83512169
1.08821 -0.511545 0.83543104
1.08305 -0.476928 0.82872987
1.09407 -0.482687 0.82698005
1.09699 -0.49076098 0.81924957
1.08802 -0.47376201 0.81248808
1.0881701 -0.53677297 0.95858401
1.10018 -0.54257303 0.95876497
1.08732 -0.53591001 0.952483
1.09999 -0.54005098 0.94331098
1.09473 -0.52807701 0.93674994
1.10561 -0.53882903 0.93546194
1.1002899 -0.55686301 0.93776494
1.10378 -0.53843099 0.92797601
1.0946801 -0.54508799 0.92231995
1.09693 -0.55458099 0.92130393
1.098 -0.54212201 0.91415894
1.10001 -0.53794199 0.90569097
1.09928 -0.551175 0.90639693
1.09523 -0.51681101 0.89772195
1.1033599 -0.52450597 0.89753997
1.0972199 -0.541556 0.89866501
1.0933 -0.55443597 0.89942497
1.09738 -0.51555198 0.889947
1.09878 -0.52886504 0.89071792
1.0936799 -0.51329201 0.8825441
1.09989 -0.53666598 0.88439047
1.0883499 -0.50339198 0.87526792
1.09534 -0.51243401 0.874964
1.09751 -0.535151 0.87647277
1.0743901 -0.495673 0.86806786
1.09114 -0.50032699 0.86765963
1.0937999 -0.49874198 0.86006892
1.08444 -0.475014 0.85234922
1.07939 -0.492241 0.85365003
1.0858899 -0.48888001 0.83781058
1.08622 -0.47717398 0.8299486
1.0839701 -0.475582 0.82127905
1.09455 -0.48270199 0.82189858
1.10957 -0.544622 0.96855301
1.0999501 -0.54717302 0.96456891
1.08833 -0.54102403 0.95912498
1.0939801 -0.53845197 0.95129895
1.0992501 -0.535914 0.93572694
1.11165 -0.54213601 0.93598199
1.0987 -0.533759 0.92967796
1.1026 -0.55632001 0.91356295
1.09677 -0.55939502 0.90692401
1.1076699 -0.53310299 0.89948493
1.09364 -0.55993801 0.90091699
1.09003 -0.511832 0.87799019
1.09689 -0.54421401 0.87132627
1.08611 -0.50279099 0.86501724
1.0901 -0.54606497 0.8645997
1.09623 -0.495015 0.84910637
1.10156 -0.50468302 0.84871024
1.07737 -0.47746399 0.83470118
1.0873799 -0.483273 0.83519667
1.0909801 -0.47248599 0.82759774
1.0877301 -0.47323799 0.81274396
1.03224 -0.57622898 0.97489297
1.03971 -0.56988204 0.97598195
1.03755 -0.56861198 0.96918494
1.04018 -0.567949 0.96461701
1.0418299 -0.55867404 0.96290696
1.04723 -0.55359602 0.96554899
1.08085 -0.495233 0.96898896
1.03657 -0.58739102 0.95952898
1.03817 -0.57811201 0.95898795
1.0403299 -0.56856298 0.95871091
1.04267 -0.55785102 0.95681196
1.04373 -0.59240896 0.95720595
1.0385801 -0.57754099 0.95350194
1.03961 -0.56607604 0.95182395
1.0396299 -0.55508596 0.94996095
1.04278 -0.58014601 0.94949394
1.04013 -0.568685 0.94662595
1.0407701 -0.55780602 0.94524199
1.04074 -0.575746 0.94227701
1.0388501 -0.56535703 0.93934602
1.03719 -0.55254602 0.93785501
1.04206 -0.54542804 0.938591
1.03868 -0.573318 0.93532801
1.04099 -0.56712103 0.93397194
1.0398101 -0.555691 0.93248796
1.04504 -0.54596102 0.93383795
1.0427899 -0.575158 0.93049997
1.03798 -0.56397098 0.92704695
1.0336699 -0.55197901 0.92493898
1.04331 -0.54636502 0.92682898
1.1028399 -0.494688 0.93950999
1.04238 -0.57398701 0.92364097
1.0405201 -0.565337 0.92245501
1.0400599 -0.55518603 0.92153901
1.0502 -0.57856798 0.91953498
1.04115 -0.565005 0.91704094
1.03994 -0.55292302 0.91524994
1.04522 -0.53678399 0.91509295
1.05513 -0.58158296 0.91552198
1.04721 -0.56985098 0.91316694
1.0481601 -0.56044996 0.91246498
1.0422599 -0.54484296 0.90957499
1.0467501 -0.53479403 0.90922898
1.06232 -0.53059101 0.91364098
1.04433 -0.56731999 0.90638494
1.03988 -0.55370098 0.90353602
1.0396399 -0.540896 0.90198898
1.04495 -0.53369498 0.90313697
1.04152 -0.57230902 0.89987791
1.0404299 -0.55150002 0.89751899
1.0353 -0.53817499 0.89472997
1.044 -0.57341701 0.89502198
1.03905 -0.54220599 0.89122695
1.04247 -0.54369199 0.88623703
1.03681 -0.52889705 0.88246948
1.03992 -0.55108601 0.88015419
1.0388 -0.53885102 0.87880325
1.0371499 -0.52854699 0.87750852
1.04178 -0.52170104 0.87816817
1.0443699 -0.54423499 0.87508452
1.0396399 -0.529796 0.87259024
1.03871 -0.539195 0.86751366
1.04154 -0.531268 0.86699569
1.04495 -0.54981399 0.86416101
1.04182 -0.53988302 0.8629747
1.03891 -0.52903497 0.86095119
1.0424501 -0.52054399 0.86052138
1.04407 -0.54131401 0.85799062
1.0380501 -0.527843 0.85507846
1.05557 -0.50566798 0.85819536
1.04352 -0.53942603 0.85224366
1.03712 -0.526434 0.84921652
1.03878 -0.53537202 0.84517431
1.03916 -0.52658701 0.84464508
1.03299 -0.51360697 0.84165537
1.03676 -0.50472403 0.84127939
1.04879 -0.53978097 0.84134322
1.03864 -0.52621603 0.83920479
1.0343801 -0.51351899 0.83619058
1.03196 -0.50213599 0.83519137
1.0673699 -0.47452998 0.84145057
1.0548 -0.54248101 0.83834535
1.03613 -0.52436501 0.83300996
1.0355 -0.51485598 0.83095527
1.03251 -0.50288999 0.83023381
1.03163 -0.51987302 0.82601494
1.0319999 -0.51165098 0.82489395
1.02905 -0.49994701 0.82348078
1.05792 -0.479469 0.82929099
1.03111 -0.51820999 0.82013786
1.0250599 -0.50727797 0.81768626
1.09106 -0.478863 0.82458717
1.0369201 -0.58708501 0.978751
1.04207 -0.56329399 0.97714198
1.0340101 -0.58417398 0.97097695
1.04326 -0.56675303 0.97128099
1.04872 -0.557208 0.97231996
1.0620099 -0.554883 0.97705495
1.0359 -0.58647001 0.96546197
1.0375299 -0.58468401 0.96008992
1.0393599 -0.57367903 0.95964998
1.0437599 -0.59077901 0.95693398
1.03932 -0.57381403 0.95375001
1.03978 -0.56168497 0.95042694
1.0377101 -0.57130504 0.94683397
1.03934 -0.561171 0.94391096
1.0388 -0.56935698 0.94010091
1.0410199 -0.55116796 0.93763
1.04397 -0.57202101 0.93481994
1.04217 -0.56072199 0.93299598
1.04144 -0.54768002 0.931436
1.0491101 -0.57587999 0.93025696
1.0431501 -0.563151 0.92748797
1.09377 -0.53208101 0.93528593
1.04978 -0.57521498 0.92426193
1.03969 -0.55877203 0.92059296
1.05 -0.574476 0.91720092
1.04222 -0.559816 0.91523898
1.05726 -0.57934201 0.91310096
1.03924 -0.55752397 0.90750003
1.04223 -0.53568399 0.90568596
1.04492 -0.56260604 0.90363693
1.06858 -0.527915 0.90659797
1.04461 -0.53604299 0.89378297
1.10734 -0.536695 0.91274095
1.04307 -0.56708401 0.88978696
1.03934 -0.54347998 0.88812315
1.0434101 -0.535761 0.88752747
1.04264 -0.54563498 0.88308996
1.0462999 -0.53559202 0.8829307
1.04127 -0.54612201 0.87641329
1.04392 -0.53407401 0.87604034
1.0444599 -0.52158797 0.8740356
1.04484 -0.53689897 0.8703267
1.04338 -0.52251798 0.86814535
1.0466 -0.546516 0.86583567
1.04308 -0.53202099 0.86344558
1.04948 -0.49630901 0.86237043
1.04811 -0.545093 0.85897356
1.04691 -0.53573 0.85917115
1.05162 -0.54624701 0.8533709
1.04652 -0.53433698 0.85296607
1.05722 -0.54967302 0.84880519
1.0471901 -0.53389597 0.84652281
1.03306 -0.51292497 0.84151268
1.03724 -0.50461 0.84298986
1.06687 -0.55507898 0.84610122
1.05378 -0.53891397 0.84277171
1.04066 -0.51984102 0.83849192
1.03418 -0.50274599 0.83594376
1.04734 -0.53172499 0.83591771
1.03373 -0.51205099 0.83131415
1.06322 -0.48111099 0.83398253
1.0290899 -0.50740302 0.82446557
1.06085 -0.481493 0.82779288
1.0546299 -0.47908002 0.82038116
1.08313 -0.47492298 0.82516265
1.09232 -0.48056999 0.82204247
1.02944 -0.58331603 0.980515
1.02661 -0.57950401 0.97218597
1.03297 -0.56957102 0.97213393
1.02915 -0.583404 0.96686095
1.03388 -0.57300204 0.96631795
1.02947 -0.58121496 0.960899
1.03857 -0.57659101 0.96166795
1.03855 -0.56344897 0.96017492
1.0472699 -0.55513197 0.96069598
1.06484 -0.55653501 0.96511894
1.03584 -0.58621901 0.95680201
1.04195 -0.57739604 0.95065498
1.03968 -0.57207799 0.94254798
1.04238 -0.56081504 0.94149202
1.04015 -0.54657197 0.937639
1.04588 -0.577456 0.93874395
1.03953 -0.55963796 0.93432897
1.04101 -0.54808104 0.93204397
1.04273 -0.57108396 0.92968297
1.0345501 -0.553249 0.92606795
1.03803 -0.54333502 0.92484999
1.04304 -0.53301102 0.92376101
1.05953 -0.53288698 0.92871994
1.07892 -0.51892102 0.93107301
1.0490201 -0.57531899 0.924191
1.03725 -0.55466902 0.92013097
1.0367501 -0.539666 0.91756994
1.04318 -0.53160703 0.91770995
1.0554399 -0.58014101 0.92008096
1.0403501 -0.55866599 0.91482091
1.0404299 -0.55643904 0.90755999
1.0477901 -0.52251303 0.90691191
1.04397 -0.55909199 0.90234202
1.03176 -0.53853202 0.89738899
1.0348201 -0.526133 0.89622098
1.0300599 -0.53423697 0.89072496
1.03316 -0.52429795 0.88880098
1.03087 -0.53470701 0.88456267
1.03046 -0.52239001 0.88214296
1.0272 -0.52861196 0.87666887
1.03478 -0.52259398 0.87790495
1.08811 -0.52744001 0.88757843
1.03039 -0.53105497 0.87123406
1.02984 -0.52987099 0.86446935
1.03233 -0.52193099 0.86443877
1.02389 -0.52275002 0.8564387
1.02816 -0.51569903 0.85712302
1.03119 -0.52868998 0.85139775
1.02414 -0.51228404 0.8496567
1.0272 -0.50301999 0.84922391
1.02933 -0.52771699 0.84535897
1.02832 -0.51770401 0.84450638
1.02564 -0.502527 0.84319937
1.0280401 -0.52587003 0.8397184
1.0243801 -0.51286596 0.83737099
1.0303 -0.52618402 0.83445227
1.06058 -0.48504201 0.83538747
1.0288401 -0.58350497 0.97680998
1.0489 -0.55389398 0.97003901
1.05822 -0.54933202 0.97350097
1.03239 -0.57080102 0.96190894
1.0459 -0.55256599 0.96241498
1.05099 -0.54499698 0.963929
1.03759 -0.59162199 0.95983499
1.03316 -0.56852299 0.954835
1.03793 -0.55915099 0.95420295
1.03782 -0.57354498 0.95077193
1.03846 -0.55905998 0.94785398
1.03872 -0.54500699 0.94587898
1.0391999 -0.57134897 0.94351697
1.0371499 -0.55703098 0.93978995
1.0413899 -0.546646 0.93976295
1.03872 -0.56923401 0.93531001
1.03708 -0.55456799 0.93304694
1.0355101 -0.53973097 0.93086398
1.09551 -0.54468399 0.94254994
1.09481 -0.53106201 0.940974
1.0421 -0.57282299 0.92950898
1.03707 -0.55677396 0.92665893
1.0387 -0.54327899 0.92551595
1.04575 -0.57539201 0.92387497
1.03514 -0.55276698 0.91959
1.04461 -0.530729 0.91660398
1.0461 -0.575409 0.91722494
1.04046 -0.55799198 0.91421896
1.0488601 -0.57714701 0.91169196
1.0376899 -0.55373198 0.90541595
1.04011 -0.56791097 0.90190202
1.0397899 -0.54258704 0.89779097
1.03057 -0.55792403 0.89187795
1.0365599 -0.55168998 0.89114898
1.03791 -0.53658199 0.89000696
1.0365599 -0.53867602 0.88351458
1.04155 -0.567568 0.87973231
1.03284 -0.53167301 0.87588906
1.036 -0.53390497 0.86995316
1.0462899 -0.50192702 0.86917138
1.03952 -0.53864801 0.86383826
1.07199 -0.59575599 0.87027496
1.0398999 -0.53975302 0.85748172
1.03493 -0.53016996 0.84920001
1.02703 -0.50786299 0.84564614
1.03405 -0.52920896 0.8439104
1.0305101 -0.51365799 0.84072614
1.07099 -0.48604 0.84371054
1.03587 -0.53040701 0.83953935
1.0379901 -0.56439298 0.98111802
1.03247 -0.55959398 0.97259599
1.02842 -0.56662297 0.96418196
1.06225 -0.55482399 0.97070497
1.03354 -0.57194501 0.95922297
1.03821 -0.56357896 0.95946592
1.04346 -0.55128103 0.95709199
1.03166 -0.56813097 0.95139295
1.03368 -0.55622101 0.95045298
1.05138 -0.54293096 0.95154297
1.0336 -0.57038301 0.94396293
1.03519 -0.55824101 0.94399995
1.0410299 -0.54820502 0.94196492
1.0323 -0.56913698 0.93686795
1.0391999 -0.56333899 0.93764198
1.03637 -0.54232299 0.93288696
1.04786 -0.53818101 0.93673402
1.05146 -0.52874297 0.93474197
1.028 -0.56339401 0.92909503
1.03065 -0.55254501 0.92694592
1.03124 -0.53633803 0.92370301
1.04024 -0.52911097 0.92658097
1.04599 -0.521873 0.92527997
1.03777 -0.52585298 0.91761398
1.04181 -0.51692402 0.91721201
1.0278 -0.54645097 0.91110498
1.0281401 -0.52919102 0.90919
1.0303299 -0.516936 0.90831202
1.02934 -0.53498101 0.90299392
1.0333101 -0.52138501 0.90271896
1.02388 -0.55671102 0.89822996
1.0298001 -0.549263 0.89762199
1.0276799 -0.529769 0.894656
1.0284801 -0.51588601 0.89443696
1.0261101 -0.55709702 0.89067197
1.03146 -0.54792303 0.89056098
1.02827 -0.53048301 0.88822114
1.03178 -0.52197301 0.88788414
1.03464 -0.56730497 0.88614058
1.0329 -0.53584802 0.88338685
1.02549 -0.51500499 0.87837309
1.03658 -0.56870604 0.87996536
1.03555 -0.537947 0.87633598
1.0367199 -0.53989601 0.86996901
1.0253199 -0.52190202 0.85990846
1.0192701 -0.50493199 0.85618854
1.0253199 -0.52002501 0.8541835
1.0598 -0.55417502 0.970442
1.07269 -0.52031797 0.95624697
1.05415 -0.53198004 0.95561492
1.06199 -0.52483702 0.95346695
1.07135 -0.51913399 0.94989395
1.08254 -0.51560998 0.946419
1.06523 -0.51812303 0.94619697
1.08207 -0.51444304 0.93985099
1.05901 -0.52405703 0.94180298
1.0666001 -0.518938 0.93797898
1.07189 -0.51162398 0.93792295
1.06653 -0.516819 0.93158996
1.07724 -0.51190001 0.92825699
1.06189 -0.51465303 0.92793101
1.0741401 -0.510625 0.92221999
1.06626 -0.53382701 0.91067696
1.06907 -0.50790602 0.91748399
1.08856 -0.50802797 0.90733093
1.06215 -0.504453 0.91593093
1.0805401 -0.50416601 0.905523
1.06431 -0.50485998 0.90839994
1.08137 -0.50152999 0.89814997
1.06356 -0.503703 0.90100801
1.0775399 -0.499327 0.89327896
1.0924 -0.49676898 0.88662505
1.06933 -0.49773201 0.8916229
1.08156 -0.49292099 0.88598549
1.06984 -0.49509701 0.88461226
1.0838 -0.491146 0.87739718
1.06224 -0.49347499 0.88252753
1.07858 -0.49056301 0.87319613
1.06279 -0.49270499 0.87423515
1.0956 -0.53395301 0.83377111
1.05978 -0.49029401 0.86861521
1.0644001 -0.48350602 0.86887252
1.06113 -0.492107 0.86091262
1.0636799 -0.48327598 0.86173296
1.07081 -0.47383401 0.85138273
1.05305 -0.46552503 0.82611686
1.0590301 -0.54052699 0.94887698
1.06516 -0.52377701 0.95165998
1.07576 -0.51806903 0.949292
1.06078 -0.51999599 0.94746399
1.06627 -0.51361799 0.94805998
1.05713 -0.52761799 0.93986893
1.0697 -0.51463199 0.93875396
1.05954 -0.51827002 0.93468595
1.0734301 -0.51415503 0.92901498
1.06566 -0.53001499 0.91851395
1.05388 -0.51561296 0.93063295
1.06393 -0.51146799 0.92696398
1.0561399 -0.51511598 0.92197591
1.06875 -0.51069999 0.91712701
1.0840499 -0.508362 0.91027796
1.05977 -0.50677699 0.91522098
1.07423 -0.50323397 0.90915102
1.0905 -0.50231898 0.90158701
1.06919 -0.50125003 0.90425402
1.0837101 -0.49845502 0.89872599
1.06265 -0.495951 0.90149397
1.08023 -0.49613601 0.89310592
1.0604399 -0.49645001 0.89611197
1.0703501 -0.49154702 0.89204997
1.08938 -0.49135301 0.88161469
1.06024 -0.49582499 0.88869798
1.07258 -0.490453 0.88325226
1.08682 -0.486904 0.87589836
1.05856 -0.49230203 0.88207173
1.075 -0.48910499 0.87447137
1.05278 -0.49945399 0.87566561
1.05188 -0.48873401 0.87933129
1.06287 -0.484202 0.87452608
1.05404 -0.50046599 0.86623555
1.05497 -0.49011698 0.87002045
1.06058 -0.48187801 0.86852801
1.05782 -0.50215697 0.85586721
1.05208 -0.48993 0.86424637
1.05729 -0.48192501 0.86354792
1.05457 -0.49854699 0.85085517
1.0545 -0.48900601 0.85530144
1.05419 -0.48745701 0.82321358
1.0952801 -0.53109002 0.96009797
1.14308 -0.53451002 0.94056696
1.0778099 -0.52963001 0.96179092
1.0872 -0.52527303 0.9522
1.0716701 -0.52560103 0.95092696
1.0903 -0.52478802 0.94292802
1.08182 -0.51891899 0.94115293
1.0668399 -0.519979 0.938721
1.09049 -0.51503801 0.90748399
1.07012 -0.511325 0.90986496
1.07579 -0.50402498 0.90981191
1.06918 -0.50659901 0.90384698
1.08135 -0.504022 0.89855301
1.06444 -0.50373602 0.89917397
1.07742 -0.50115103 0.89455092
1.0719399 -0.49774101 0.89028299
1.0835099 -0.496535 0.88685805
1.0653 -0.49345797 0.8861897
1.08056 -0.494542 0.88048959
1.06261 -0.489999 0.88133919
1.07415 -0.489463 0.87613374
1.06401 -0.49067199 0.87323743
1.07363 -0.48591301 0.86811686
1.06399 -0.48975301 0.86436576
1.05427 -0.49400601 0.86045158
1.06374 -0.50954199 0.83942652
1.0563099 -0.494418 0.85037535
1.07682 -0.47249901 0.85048288
1.0608001 -0.458646 0.82036191
1.07038 -0.52557397 0.95523399
1.06646 -0.52199697 0.94994795
1.0836101 -0.52276796 0.94405901
1.07218 -0.52513301 0.93952698
1.07768 -0.51467901 0.91667998
1.0856401 -0.50997603 0.90777797
1.0754499 -0.51112598 0.90161097
1.08347 -0.50734103 0.90169299
1.0715699 -0.50618804 0.89679003
1.0844001 -0.50583196 0.89256293
1.0792401 -0.50050497 0.88901991
1.09267 -0.49951899 0.88249433
1.08222 -0.50074899 0.87955528
1.06793 -0.49059299 0.88060385
1.08486 -0.49200499 0.87392992
1.07164 -0.528947 0.85701185
1.06142 -0.49535099 0.87323684
1.0663099 -0.48669997 0.87516099
1.06189 -0.49716401 0.86498314
1.06794 -0.48846599 0.86518991
1.06231 -0.49419898 0.85742205
1.07388 -0.47686902 0.85756117
1.0641999 -0.458125 0.82630193
1.05812 -0.462457 0.81945276
1.09074 -0.53337801 0.96927202
1.09394 -0.53567499 0.95770401
1.09044 -0.532453 0.95151794
1.05659 -0.54142702 0.95080298
1.09067 -0.52941501 0.94559801
1.0880899 -0.527004 0.93927896
1.06094 -0.53443402 0.92556494
1.06295 -0.53637296 0.91615295
1.0743099 -0.51378 0.92172599
1.0751899 -0.51253504 0.91294199
1.09339 -0.51679903 0.90650201
1.06871 -0.50833398 0.90931594
1.0913 -0.51394403 0.89929396
1.06844 -0.507034 0.90066892
1.09677 -0.50607896 0.89279199
1.0918 -0.501396 0.88788307
1.0755401 -0.49832198 0.88391846
1.08419 -0.49420202 0.88419801
1.07252 -0.49409303 0.87864447
1.08278 -0.49096099 0.87549078
1.06961 -0.49133 0.87285048
1.05887 -0.53988701 0.85066688
1.07463 -0.49196202 0.8618989
1.05528 -0.49131098 0.85155845
1.0494699 -0.48377201 0.83864844
1.1393 -0.53295302 0.95418197
1.13921 -0.531986 0.94745302
1.12369 -0.512981 0.90881997
1.12896 -0.49384499 0.89805692
1.13149 -0.52439499 0.93896097
1.14013 -0.52895498 0.94388497
1.14149 -0.52734399 0.93566895
1.12683 -0.51125997 0.91256994
1.12626 -0.51114899 0.90260893
1.128 -0.49602199 0.89818895
1.13044 -0.48986199 0.8518784
1.12151 -0.484301 0.83748227
1.12472 -0.49231398 0.83915842
1.12252 -0.48266 0.82976282
1.12703 -0.48938501 0.83063436
1.12567 -0.47937801 0.82338816
1.11979 -0.494066 0.84455127
1.1385601 -0.50476599 0.85193664
1.1276799 -0.49111402 0.8413592
1.12634 -0.48872399 0.83224672
1.08067 -0.52586299 0.95232499
1.04216 -0.57415795 0.94679892
1.04257 -0.563667 0.93627
1.01868 -0.583565 0.94370598
1.0744001 -0.49982798 0.89345694
1.0671901 -0.54304099 0.96361399
1.0383101 -0.57119101 0.95298994
1.0374401 -0.58043998 0.94927698
1.03952 -0.557302 0.94006193
1.0261 -0.558981 0.9481709
1.04204 -0.56655103 0.93498302
1.04414 -0.55464804 0.93057692
1.0336499 -0.57054299 0.93302298
1.04276 -0.554901 0.92411596
1.04208 -0.55233401 0.91592401
1.04277 -0.54138303 0.90441793
1.03332 -0.54762501 0.90493894
1.04373 -0.52578998 0.82609016
1.0271499 -0.52963299 0.8356384
1.09119 -0.458262 0.85966021
1.06444 -0.49285099 0.86582458
1.08026 -0.47626799 0.85284066
1.07837 -0.47652099 0.8463695
1.05827 -0.48115599 0.83262855
1.02475 -0.514543 0.85193944
1.03974 -0.49788702 0.83101755
1.03184 -0.500543 0.82782906
1.07573 -0.53920698 0.96659899
1.04204 -0.56541198 0.98301297
1.0664001 -0.54475898 0.965083
1.08486 -0.52513701 0.95228499
1.0388501 -0.57343 0.98012793
1.0733399 -0.53050202 0.95158297
1.0391001 -0.57256502 0.97163302
1.03857 -0.57348901 0.96450394
1.04048 -0.56528497 0.96133196
1.0386599 -0.57323003 0.957138
1.04045 -0.565705 0.95465195
1.043 -0.556099 0.95097101
1.04067 -0.57204604 0.94806296
1.03628 -0.56698203 0.95086497
1.04232 -0.555022 0.94357497
1.02494 -0.57788801 0.95116198
1.0365599 -0.56615299 0.94305396
1.0407 -0.55429798 0.93635195
1.0414 -0.56272799 0.93151301
1.03565 -0.55691504 0.93280798
1.04116 -0.544599 0.92640692
1.04295 -0.56092399 0.92147499
1.0403299 -0.55492097 0.92297995
1.03792 -0.54712504 0.92095298
1.0395 -0.53659403 0.91757196
1.04058 -0.55378801 0.91450799
1.0417199 -0.53356397 0.90736395
1.04247 -0.55238897 0.90505195
1.03135 -0.548455 0.91130096
1.03997 -0.534971 0.90046
1.03571 -0.54666001 0.90034294
1.03453 -0.53806001 0.89700896
1.03764 -0.54484499 0.89024496
1.03413 -0.535824 0.88962001
1.0546601 -0.50529099 0.86875784
1.07645 -0.47449797 0.84900427
1.05346 -0.54610097 0.87198448
1.04203 -0.54360402 0.8789615
1.03214 -0.53810298 0.88388997
1.0321499 -0.52816701 0.88169158
1.06848 -0.48810199 0.84932488
1.0689601 -0.47794801 0.84585899
1.05161 -0.546363 0.86609083
1.0469999 -0.54128802 0.86760908
1.04141 -0.53415799 0.86942434
1.03615 -0.52608502 0.87119871
1.05353 -0.49636501 0.85131896
1.05336 -0.537283 0.85495645
1.03988 -0.534917 0.86248994
1.0365 -0.52534401 0.86236811
1.04049 -0.51368403 0.85594857
1.03879 -0.50510198 0.85421127
1.05497 -0.53522402 0.84571868
1.0479901 -0.5309 0.8486461
1.03537 -0.52753299 0.85592097
1.04916 -0.48717603 0.83405566
1.0577999 -0.47481099 0.82608169
1.03844 -0.52450597 0.84447885
1.0357499 -0.51367801 0.84274781
1.03897 -0.502868 0.83758378
1.03591 -0.49518698 0.83697528
1.0381501 -0.53139597 0.83953506
1.03453 -0.51584101 0.83599722
1.03486 -0.50466204 0.83310938
1.03128 -0.51732397 0.83042359
1.02929 -0.509157 0.82999057
1.0299801 -0.49827099 0.82556367
1.03137 -0.51589501 0.82199019
1.02719 -0.50873899 0.82272291
1.04907 -0.553711 0.97742599
1.07998 -0.52458799 0.95596498
1.04055 -0.57544798 0.97888297
1.03991 -0.56545198 0.97808295
1.04566 -0.55381 0.971645
1.05628 -0.541605 0.96421796
1.07816 -0.524252 0.95015597
1.04096 -0.56699502 0.97106498
1.03907 -0.557576 0.96919
1.05188 -0.54409599 0.95990598
1.06029 -0.53351599 0.95419002
1.07065 -0.57343799 0.94538796
1.04127 -0.566136 0.96365494
1.03801 -0.55736899 0.96196002
1.05111 -0.53743899 0.95203799
1.06778 -0.56718701 0.93974197
1.0325 -0.55856097 0.95893496
1.03887 -0.548011 0.95328295
1.04922 -0.53726798 0.94514793
1.0967801 -0.56536299 0.915106
1.0341101 -0.55756998 0.95123297
1.03739 -0.54775 0.94692993
1.0364801 -0.54038101 0.94529498
1.0327801 -0.55884802 0.94453192
1.03427 -0.54836297 0.94189894
1.0387 -0.53803802 0.93589997
1.04193 -0.556059 0.93107498
1.03125 -0.55071098 0.93718094
1.0339199 -0.54058999 0.93287694
1.0469899 -0.52733898 0.92128295
1.04258 -0.55531603 0.92278695
1.03694 -0.547481 0.92567599
1.03611 -0.53794497 0.92412895
1.04075 -0.54669899 0.91529495
1.0360299 -0.53836298 0.91735792
1.05265 -0.51463002 0.89993197
1.06766 -0.502361 0.88892901
1.04249 -0.526232 0.90136993
1.0494699 -0.51367199 0.89403099
1.0423599 -0.54624802 0.89895993
1.0496299 -0.50453001 0.88486528
1.0361199 -0.53876901 0.89481997
1.03316 -0.53020597 0.89338195
1.04155 -0.507994 0.88246882
1.07943 -0.540438 0.85856837
1.03543 -0.53876597 0.88757646
1.03403 -0.52918798 0.88493729
1.0431501 -0.50617903 0.8732664
1.04681 -0.49689302 0.8702504
1.04583 -0.534464 0.87188864
1.03698 -0.52690101 0.87488401
1.03183 -0.52029997 0.87645131
1.04449 -0.49699402 0.86337584
1.0552 -0.48583803 0.85436893
1.05191 -0.53183496 0.86020476
1.02836 -0.53143501 0.874686
1.05015 -0.48762 0.85044777
1.03049 -0.52874804 0.86470705
1.02836 -0.52174401 0.8640185
1.02566 -0.514476 0.86383241
1.03027 -0.52726501 0.85548955
1.0254101 -0.52236599 0.85919487
1.02641 -0.51294798 0.85515559
1.02985 -0.50130999 0.84906232
1.04614 -0.52113098 0.83624911
1.02957 -0.520073 0.84796125
1.03079 -0.51000804 0.84295577
1.03509 -0.51716501 0.83492613
1.0324299 -0.509431 0.83387911
1.03652 -0.508802 0.82360238
1.0242 -0.493507 0.82715696
1.0254 -0.50271803 0.82196945
1.02163 -0.49467 0.82154387
1.0909101 -0.54501402 0.97397399
1.08974 -0.53559202 0.96311402
1.0857 -0.53364104 0.95386499
1.09515 -0.543993 0.95922995
1.0952801 -0.533409 0.95179796
1.09304 -0.542934 0.94936097
1.10488 -0.545901 0.94741195
1.10551 -0.53607899 0.93963701
1.10236 -0.53410399 0.92909503
1.10505 -0.54616296 0.93187898
1.07837 -0.51192498 0.90284801
1.10311 -0.53363097 0.92072099
1.10598 -0.54442799 0.92399198
1.1023899 -0.55536801 0.92186296
1.09428 -0.56323004 0.91537696
1.07987 -0.510934 0.89429498
1.09224 -0.521752 0.90394896
1.10252 -0.545084 0.91369992
1.09341 -0.554968 0.90724999
1.0878299 -0.56251204 0.90351194
1.09199 -0.52050596 0.89544195
1.0961499 -0.53243899 0.89824492
1.0965199 -0.54461104 0.90096396
1.08829 -0.5535 0.89496797
1.07498 -0.49965599 0.87315834
1.09666 -0.522627 0.88965499
1.09609 -0.53330702 0.88992494
1.09551 -0.54356998 0.89039892
1.0869499 -0.55180299 0.88388199
1.07373 -0.49656898 0.86323577
1.0967801 -0.52174598 0.88027465
1.0992501 -0.53368402 0.88410032
1.0931801 -0.54335499 0.87957442
1.0744799 -0.550143 0.86812019
1.08232 -0.49760699 0.86024964
1.08819 -0.50820804 0.86397642
1.0944999 -0.51949298 0.86927766
1.09653 -0.53222197 0.87246561
1.08225 -0.49898201 0.85219693
1.0959201 -0.510499 0.86082107
1.08921 -0.52111 0.85736334
1.07622 -0.53064203 0.84999692
1.0829101 -0.487075 0.8414185
1.08751 -0.499147 0.84633148
1.09523 -0.51168203 0.85219055
1.0779901 -0.47461799 0.82662857
1.08409 -0.485192 0.83341956
1.08687 -0.49583399 0.83583295
1.0912499 -0.50942999 0.83997244
1.07548 -0.52032399 0.83016676
1.08425 -0.48517898 0.82404679
1.09073 -0.498514 0.82900447
1.0914 -0.48873797 0.81915426
1.09242 -0.54183298 0.98007292
1.08575 -0.53819501 0.96727198
1.10788 -0.55236399 0.98188597
1.08635 -0.52682501 0.95775396
1.08777 -0.53767896 0.96060097
1.10918 -0.55167902 0.97313994
1.0917701 -0.53907198 0.95393896
1.0927 -0.53811401 0.94558597
1.101 -0.55120397 0.9517349
1.09954 -0.516774 0.93742996
1.1018599 -0.54164797 0.94303793
1.0980899 -0.51737601 0.92826998
1.1003 -0.539455 0.934264
1.09744 -0.551467 0.93320298
1.09036 -0.56984103 0.92979795
1.07578 -0.50365698 0.90505797
1.08216 -0.51396 0.91071397
1.0953 -0.52764201 0.92009997
1.10245 -0.541031 0.92660993
1.10498 -0.55257601 0.928958
1.0935299 -0.560857 0.923406
1.06888 -0.50242901 0.89299291
1.0785199 -0.51252401 0.89902997
1.0956199 -0.53915399 0.91324896
1.1020401 -0.55187303 0.91944796
1.09136 -0.55936402 0.91282392
1.07306 -0.50305599 0.88709664
1.09012 -0.52547598 0.89834595
1.0966201 -0.53790498 0.90513498
1.09584 -0.549281 0.90609097
1.08736 -0.55686498 0.90131396
1.0893101 -0.51661497 0.88828295
1.09479 -0.52759999 0.89326292
1.09644 -0.53804702 0.89614797
1.07266 -0.48832101 0.8642627
1.085 -0.50296998 0.87371176
1.08881 -0.51518202 0.87879014
1.0994999 -0.52840799 0.88827765
1.0945801 -0.53746104 0.88542086
1.07952 -0.49937099 0.86148798
1.0917701 -0.51381403 0.87106252
1.09284 -0.535487 0.87476677
1.09215 -0.50463599 0.86097151
1.09719 -0.51768702 0.86584061
1.08698 -0.50114399 0.84812474
1.09266 -0.51388699 0.85355425
1.0634999 -0.46275502 0.81828225
1.07737 -0.47765401 0.83038431
1.0917801 -0.49333 0.84103942
1.09567 -0.50517297 0.84594345
1.07923 -0.52378702 0.8365047
1.08961 -0.490612 0.82931972
1.09714 -0.50500602 0.83795297
1.08213 -0.52325803 0.83076471
1.0949401 -0.492024 0.82395673
1.09619 -0.491382 0.81707489
1.08268 -0.52837104 0.84426332
1.1007199 -0.50231302 0.84111708
1.09611 -0.48996899 0.82661438
1.09663 -0.50083601 0.83183944
1.07645 -0.518471 0.82393599
1.1108899 -0.56896096 0.970514
1.09343 -0.57060003 0.93213099
1.1023999 -0.54447103 0.97995597
1.08699 -0.59591997 0.98458695
1.09974 -0.53846002 0.95872098
1.0996499 -0.53939497 0.94946295
1.10344 -0.54238099 0.94332004
1.0989 -0.52794898 0.92947298
1.1034 -0.54136103 0.93503797
1.10124 -0.55248499 0.937612
1.09075 -0.57150602 0.93455797
1.10216 -0.54077703 0.92514795
1.10235 -0.55365801 0.92980498
1.09763 -0.53789902 0.91343302
1.0930001 -0.54873002 0.91434801
1.09035 -0.52205503 0.89410597
1.09548 -0.53732198 0.90363693
1.0942299 -0.54845697 0.90489495
1.08462 -0.49658 0.87690568
1.08508 -0.50669104 0.87922996
1.0940499 -0.52376801 0.88712311
1.09059 -0.54473996 0.89167196
1.09202 -0.51050901 0.87371439
1.09367 -0.52468103 0.87854522
1.09658 -0.53720999 0.88532799
1.08979 -0.49703398 0.8603161
1.09376 -0.51134199 0.86549646
1.09246 -0.52245802 0.86859304
1.09499 -0.53515303 0.87500334
1.09053 -0.49437901 0.85059744
1.0879799 -0.50690198 0.85282958
1.0916899 -0.52064902 0.85900575
1.0891 -0.49158201 0.83922523
1.08977 -0.50576502 0.84390187
1.09191 -0.49686599 0.83282834
1.0929 -0.50990897 0.82859606
1.02939 -0.50451803 0.8168326
1.02351 -0.51260602 0.81831068
1.03458 -0.50724399 0.81634849
1.02903 -0.58304101 0.9793179
1.0282199 -0.57348299 0.98006797
1.0410399 -0.59381503 0.97551501
1.04195 -0.56760103 0.97815496
1.04344 -0.55715299 0.96806794
1.04206 -0.54827499 0.96911699
1.04207 -0.54842097 0.96309799
1.03592 -0.54234904 0.96103096
1.0420201 -0.53916597 0.95749998
1.03873 -0.54902601 0.94941401
1.0374401 -0.54144502 0.95108092
1.03766 -0.54948801 0.94300401
1.0398999 -0.54062903 0.94561601
1.04318 -0.55613303 0.93944597
1.04081 -0.54856604 0.93844193
1.03978 -0.53962004 0.93864095
1.04449 -0.53612596 0.93420196
1.06835 -0.51428902 0.94051498
1.03677 -0.53877604 0.92091697
1.05115 -0.52161598 0.92552894
1.07233 -0.50176501 0.93270898
1.03697 -0.53669602 0.915851
1.05101 -0.52127898 0.91986102
1.0588 -0.508636 0.92403197
1.04345 -0.53641897 0.91223001
1.0409 -0.52820498 0.91201502
1.04877 -0.51605099 0.91532296
1.02937 -0.53402901 0.90421599
1.03213 -0.55546302 0.89607596
1.041 -0.53809398 0.90009898
1.04571 -0.54348803 0.89581198
1.04162 -0.53879499 0.89507699
1.01648 -0.54966098 0.88602901
1.03775 -0.57134497 0.98073095
1.04128 -0.56091702 0.98151296
1.05093 -0.54657501 0.97413301
1.05057 -0.54789901 0.96871895
1.05305 -0.53623402 0.95821595
1.05108 -0.54874098 0.95254797
1.04917 -0.539307 0.95165098
1.05107 -0.52903903 0.95311093
1.0517401 -0.548976 0.94680792
1.04541 -0.53144801 0.945822
1.05077 -0.52118999 0.94792098
1.05003 -0.54789698 0.94045198
1.04678 -0.538311 0.93976998
1.0504 -0.52707404 0.94171602
1.0484101 -0.519041 0.94095498
1.04443 -0.53878504 0.93361694
1.04186 -0.530999 0.93424195
1.04836 -0.51890498 0.93566298
1.04524 -0.52959096 0.92915893
1.05309 -0.51606297 0.93135893
1.06353 -0.50345004 0.935022
1.04801 -0.53902501 0.92448497
1.04511 -0.52972198 0.92270696
1.04538 -0.519831 0.92415696
1.0567501 -0.50680196 0.928379
1.04303 -0.521559 0.91769296
1.0483299 -0.51175898 0.92074603
1.03666 -0.51623404 0.91240799
1.03308 -0.53370601 0.90567398
1.02433 -0.52729201 0.90433902
1.0338401 -0.517214 0.90726393
1.11498 -0.496916 0.90341997
1.12905 -0.50553203 0.90121698
1.13325 -0.50635701 0.89479995
1.1407399 -0.51862597 0.89315093
1.14399 -0.51781499 0.88599747
1.13152 -0.50478101 0.86159188
1.1304001 -0.49346402 0.85520124
1.13719 -0.50541097 0.85392553
1.13332 -0.49459401 0.84818441
1.13924 -0.50555801 0.84797966
1.12901 -0.48203602 0.84256858
1.13072 -0.493016 0.84191203
1.09172 -0.521061 0.84408218
1.1285701 -0.47237802 0.83723885
1.1317 -0.48313901 0.83566797
1.13835 -0.495626 0.8358832
1.08649 -0.51997501 0.83920062
1.13104 -0.47320098 0.83088094
1.13025 -0.482324 0.82904083
1.1301399 -0.49422699 0.82957184
1.1299601 -0.473703 0.82299966
1.13095 -0.48403001 0.82289857
1.12368 -0.50659698 0.90483397
1.12937 -0.51594603 0.89568692
1.14003 -0.51812899 0.8885808
1.1258399 -0.50430501 0.85149926
1.1227601 -0.491494 0.84389114
1.1292701 -0.504448 0.8447789
1.11694 -0.46796501 0.8390587
1.11725 -0.477478 0.83847719
1.12051 -0.48875701 0.83790618
1.12946 -0.49376801 0.83087754
1.12633 -0.49022701 0.82381254
1.13465 -0.52948797 0.95297295
1.1411901 -0.53134704 0.93758303
1.13796 -0.53178 0.92513692
1.1387401 -0.51130199 0.87721276
1.12703 -0.496741 0.8577131
1.13026 -0.49904597 0.85129857
1.1321399 -0.50103003 0.84406644
1.12525 -0.48602599 0.83818007
1.14003 -0.50240397 0.83706969
1.12867 -0.48589098 0.83112013
1.13475 -0.48925999 0.82420301
1.13656 -0.52137899 0.93009597
1.1052899 -0.54619902 0.90508598
1.0889601 -0.52711201 0.87137246
1.13412 -0.47650599 0.84783089
1.13255 -0.47711602 0.84160197
1.13977 -0.533014 0.963907
1.13721 -0.53002602 0.95706999
1.09824 -0.55902404 0.95394897
1.13126 -0.52263999 0.93616998
1.13578 -0.52772701 0.92225099
1.1271601 -0.51907599 0.90838593
1.1240799 -0.50692701 0.90209997
1.13161 -0.523507 0.89995694
1.12828 -0.509785 0.89409095
1.13116 -0.52262098 0.89255798
1.13662 -0.51353198 0.87882996
1.12842 -0.49624699 0.85047311
1.12894 -0.494809 0.84282547
1.12736 -0.47250098 0.83794326
1.11719 -0.47674301 0.83889788
1.13348 -0.49659699 0.83594179
1.12564 -0.48341998 0.83147532
