# .PCD v0.7 - Point Cloud Data file format
VERSION 0.7
FIELDS x y z
SIZE 4 4 4
TYPE F F F
COUNT 1 1 1
WIDTH 433
HEIGHT 1
VIEWPOINT 0 0 0 1 0 0 0
POINTS 433
DATA ascii
1.10965 -0.210877 0.14827897
1.1104599 -0.22315399 0.14594895
1.10985 -0.239536 0.14255996
1.11444 -0.25186399 0.14227699
1.11918 -0.20546199 0.14402497
1.10943 -0.22163601 0.13822898
1.11519 -0.23197399 0.13744995
1.11633 -0.24857301 0.13483894
1.11278 -0.222624 0.13151298
1.11709 -0.23381901 0.12989196
1.11093 -0.25112101 0.12340195
1.11427 -0.23680599 0.12049995
1.11174 -0.24884899 0.11522293
1.12138 -0.232878 0.11597099
1.10497 -0.25376999 0.10564095
1.1099 -0.233952 0.14995998
1.10223 -0.19994801 0.14663696
1.09984 -0.21146201 0.14395393
1.10752 -0.22060801 0.14439896
1.1145301 -0.23032302 0.14422196
1.11642 -0.243213 0.14332595
1.11588 -0.25883698 0.14057495
1.0967 -0.20200701 0.13620995
1.10412 -0.20947599 0.13794495
1.11016 -0.219763 0.13683197
1.11321 -0.233357 0.13647293
1.12001 -0.243423 0.13642898
1.0914299 -0.204275 0.12572098
1.10356 -0.20863301 0.12920296
1.10975 -0.21851601 0.12808998
1.11666 -0.230371 0.12961495
1.11154 -0.248621 0.12421997
1.1006501 -0.200847 0.12161194
1.10891 -0.207957 0.12222695
1.1152301 -0.218602 0.12248894
1.1189901 -0.230755 0.12224694
1.1114399 -0.24634199 0.11609695
1.10709 -0.20960301 0.11294197
1.11081 -0.21851701 0.11315399
1.11815 -0.22842199 0.11382996
1.10883 -0.24470501 0.10690597
1.11385 -0.20843901 0.10699799
1.11308 -0.21889201 0.10545295
1.12097 -0.226133 0.10721894
1.11535 -0.21779199 0.099151
1.11745 -0.22635299 0.098492965
1.1138999 -0.227624 0.090839006
1.10481 -0.20704001 0.14934295
1.10683 -0.218753 0.14906697
1.1141601 -0.23970501 0.14903095
1.11463 -0.25478899 0.146222
1.08737 -0.20102601 0.13516098
1.10479 -0.20650201 0.14212699
1.10489 -0.21930499 0.14024498
1.11657 -0.226339 0.14494896
1.1166201 -0.23997101 0.14168495
1.11669 -0.25327998 0.13866395
1.07546 -0.19426 0.12517296
1.07818 -0.201729 0.12428993
1.10133 -0.20459101 0.132696
1.10736 -0.21550399 0.13479698
1.11321 -0.22777201 0.13449197
1.11342 -0.24300399 0.13236694
1.1181301 -0.25357598 0.13180999
1.07513 -0.19373699 0.11790497
1.08622 -0.19941001 0.11967301
1.10289 -0.205166 0.12520394
1.1101999 -0.21452101 0.12812394
1.11613 -0.22473699 0.12703499
1.11401 -0.24058399 0.124459
1.081 -0.19170201 0.11103195
1.08792 -0.19908001 0.11206596
1.11055 -0.21408199 0.11963096
1.1141601 -0.22715999 0.11808098
1.11261 -0.24104001 0.11500099
1.10708 -0.25374401 0.11061493
1.0770301 -0.192682 0.10035698
1.0849401 -0.199084 0.10309898
1.10671 -0.20314501 0.11167793
1.11681 -0.21334401 0.11409294
1.10998 -0.229295 0.10779899
1.10628 -0.242148 0.10393196
1.08859 -0.18854 0.098030932
1.0858101 -0.19788601 0.09601593
1.1060901 -0.200884 0.103153
1.11437 -0.212455 0.10468193
1.11338 -0.22645901 0.10104897
1.10877 -0.20288999 0.096224979
1.1083699 -0.21601601 0.092784956
1.11485 -0.22534099 0.093337938
1.11436 -0.214669 0.086495973
1.10526 -0.231085 0.080276944
1.12006 -0.21182801 0.080765992
1.1139801 -0.22535101 0.077817
1.12158 -0.21972699 0.07412193
1.12255 -0.218413 0.068881989
1.09553 -0.205017 0.14834
1.09499 -0.215074 0.14830093
1.10058 -0.22354299 0.14833793
1.0796601 -0.20666799 0.13282196
1.0955 -0.214459 0.14035095
1.11148 -0.22115499 0.14596397
1.1114399 -0.23242599 0.14309898
1.11887 -0.24185301 0.14496796
1.0747 -0.205322 0.12377694
1.10991 -0.221605 0.13719498
1.11695 -0.23288201 0.13791999
1.11529 -0.24592899 0.13595794
1.08176 -0.204079 0.11967193
1.1014 -0.20997299 0.12514794
1.1083 -0.22072901 0.12791893
1.1190799 -0.229561 0.13213898
1.1169 -0.24378799 0.12885094
1.0738 -0.19448401 0.11031998
1.10221 -0.20919099 0.11792496
1.11202 -0.218807 0.120877
1.11367 -0.231786 0.12181694
1.11291 -0.244627 0.11841995
1.11168 -0.20809099 0.11476593
1.11629 -0.218059 0.11531594
1.1168599 -0.22988501 0.11440895
1.10901 -0.24452801 0.10817398
1.07971 -0.192178 0.09615799
1.10579 -0.208097 0.10508095
1.1149299 -0.21807501 0.10742798
1.11654 -0.230536 0.10538299
1.11027 -0.24261899 0.099534988
1.11174 -0.207597 0.099472962
1.11664 -0.21941099 0.100075
1.11989 -0.22926001 0.098599933
1.10368 -0.24461599 0.087972946
1.1108899 -0.207036 0.090313949
1.11718 -0.21841699 0.092600934
1.11862 -0.23003401 0.089675978
1.10695 -0.244192 0.081306994
1.07707 -0.19369601 0.069099963
1.11647 -0.21889299 0.083163984
1.11295 -0.23314101 0.07847099
1.10771 -0.244132 0.074240953
1.11959 -0.21520901 0.076705933
1.11991 -0.227917 0.074237972
1.10847 -0.243324 0.066655964
1.12025 -0.21616501 0.067625962
1.1192 -0.23044799 0.065137938
1.10274 -0.24601999 0.055684969
1.12734 -0.21308 0.062632978
1.1197 -0.22812501 0.058107987
1.1125901 -0.241741 0.053956985
1.11375 -0.21792001 0.04987793
1.1132901 -0.24036101 0.048672944
1.07572 -0.20852 0.14376594
1.08 -0.206561 0.13737495
1.09526 -0.21312201 0.14237396
1.10755 -0.222132 0.14749894
1.11409 -0.233566 0.14854194
1.05158 -0.17298901 0.11787994
1.05645 -0.182687 0.11965095
1.05907 -0.19322599 0.11992996
1.0770099 -0.202828 0.12752296
1.10491 -0.220359 0.13774399
1.1142501 -0.231452 0.14118393
1.11703 -0.24345699 0.14208397
1.11796 -0.25522801 0.13956894
1.0585999 -0.181558 0.11502998
1.0806301 -0.20408899 0.12206299
1.10107 -0.210796 0.13041694
1.10542 -0.22019801 0.12987396
1.11717 -0.22872899 0.13448295
1.11693 -0.242396 0.13360596
1.08102 -0.201297 0.11431793
1.10203 -0.210201 0.12237694
1.11257 -0.220847 0.12578399
1.118 -0.23143299 0.12759598
1.11411 -0.243889 0.123759
1.0812401 -0.19172899 0.10758194
1.0964299 -0.200284 0.11310493
1.1045899 -0.20981801 0.11496598
1.1092501 -0.219372 0.11722595
1.1168699 -0.230096 0.11918098
1.1094999 -0.24419001 0.11356796
1.07611 -0.191367 0.097415999
1.0862499 -0.20038401 0.10158195
1.11163 -0.218923 0.11006393
1.11949 -0.23012501 0.11175598
1.1078601 -0.24340901 0.10478698
1.08734 -0.200831 0.093630984
1.1092299 -0.209113 0.10169098
1.11675 -0.220265 0.10376198
1.12125 -0.230167 0.10489998
1.10885 -0.24140301 0.096495971
1.03618 -0.185461 0.063975982
1.11257 -0.21759 0.093881987
1.11745 -0.22936898 0.094890974
1.1081901 -0.24154699 0.087855987
1.1101899 -0.20740299 0.08600197
1.12006 -0.21809 0.088561937
1.119 -0.23033899 0.086883999
1.10478 -0.24292201 0.078811951
1.11989 -0.20694599 0.082292937
1.11796 -0.21806601 0.080219954
1.12371 -0.226712 0.081544951
1.1063501 -0.24172501 0.071684949
1.12635 -0.215443 0.077294998
1.1108899 -0.23144501 0.066616975
1.10671 -0.24190901 0.06385994
1.1231099 -0.21518299 0.066765979
1.11371 -0.23029101 0.059164964
1.10606 -0.24151801 0.055999983
1.10171 -0.243121 0.046672974
1.02879 -0.20091601 0.14473397
1.02959 -0.19452801 0.14527
1.0240799 -0.19849899 0.14147294
1.02916 -0.193094 0.13929893
1.02192 -0.19717599 0.13733299
1.02859 -0.19253701 0.13472794
1.0357701 -0.18854299 0.131772
1.0269899 -0.19709601 0.12948799
1.03364 -0.186351 0.12730293
1.02756 -0.19715901 0.12242096
1.03441 -0.191752 0.12107498
1.0383101 -0.186873 0.12029594
1.01466 -0.201805 0.12069497
1.02964 -0.19943801 0.11518295
1.0310299 -0.191723 0.11706398
1.02432 -0.204467 0.111921
1.0271499 -0.19823 0.11043999
1.0335701 -0.192292 0.110429
1.04036 -0.185524 0.10762596
1.02588 -0.20422399 0.10484596
1.0245401 -0.19724199 0.10643196
1.03069 -0.191323 0.10544395
1.04055 -0.185664 0.10194496
1.02937 -0.20540801 0.097758941
1.02856 -0.19846001 0.099394992
1.0353299 -0.191331 0.097412951
1.0415 -0.184365 0.097232968
1.08214 -0.18059999 0.083051987
1.02389 -0.202797 0.09476494
1.0332 -0.198722 0.090881959
1.0276799 -0.188741 0.094750978
1.03523 -0.18339001 0.094356991
1.0304101 -0.20447999 0.085296936
1.02765 -0.196776 0.087407
1.03224 -0.19139099 0.087343976
1.0319899 -0.18434799 0.088664934
1.02579 -0.19688199 0.083168946
1.02976 -0.19043399 0.082413942
1.02958 -0.18340999 0.083625942
1.02679 -0.196845 0.077254944
1.03383 -0.19184601 0.074241944
1.03084 -0.18365499 0.07697998
1.03082 -0.18221599 0.07136894
1.0336 -0.19041 0.062610932
1.0378801 -0.182918 0.062061004
1.03084 -0.19653299 0.148555
1.0244 -0.19303499 0.145933
1.03487 -0.191513 0.14291199
1.02973 -0.20537001 0.135718
1.0260299 -0.194204 0.13998398
1.03403 -0.190807 0.13693298
1.02519 -0.210004 0.13049194
1.02537 -0.20257001 0.13180199
1.03 -0.196099 0.13157898
1.03473 -0.190265 0.13097298
1.02836 -0.21093 0.123349
1.02897 -0.204004 0.12479698
1.03355 -0.19730699 0.12378296
1.0361199 -0.19004101 0.12433296
1.02496 -0.208313 0.11877899
1.0254 -0.20041201 0.12043694
1.03794 -0.196987 0.11701096
1.03263 -0.186581 0.12059197
1.05924 -0.19216499 0.11018799
1.02679 -0.20209499 0.11357193
1.03273 -0.19593 0.11358093
1.03897 -0.188954 0.11228599
1.05729 -0.18941799 0.10541099
1.0267501 -0.203016 0.10734695
1.0303299 -0.194158 0.10812797
1.0365 -0.18716401 0.10768097
1.0858001 -0.19467899 0.089548953
1.0245099 -0.199737 0.10248993
1.03476 -0.19502199 0.099899977
1.04066 -0.188246 0.10037796
1.0288 -0.20840599 0.094641954
1.02458 -0.19974701 0.097081989
1.02755 -0.19295999 0.096931994
1.03548 -0.18723699 0.096404955
1.0489299 -0.184825 0.092063978
1.02385 -0.19842599 0.092606962
1.0354199 -0.19637501 0.087608948
1.03483 -0.18675199 0.090410002
1.04694 -0.18363199 0.086630933
1.03066 -0.200256 0.083601989
1.02821 -0.19134898 0.085457996
1.03514 -0.185552 0.083717957
1.0269101 -0.19736201 0.079292983
1.03062 -0.19186701 0.078326948
1.03362 -0.18533599 0.077999957
1.04759 -0.18395099 0.073597945
1.02707 -0.18924299 0.074487001
1.0367199 -0.184871 0.070969999
1.04742 -0.18172701 0.067537002
1.03521 -0.183128 0.065713957
1.0682399 -0.19507799 0.14583199
1.03185 -0.20178801 0.14721596
1.0364701 -0.194591 0.14767495
1.04972 -0.192276 0.14369598
1.06283 -0.19159299 0.14131698
1.03036 -0.200481 0.14263999
1.04169 -0.196724 0.139562
1.05039 -0.19197398 0.13804597
1.07831 -0.20018299 0.13042098
1.0433201 -0.19756599 0.13247399
1.04611 -0.190439 0.13238899
1.04283 -0.196161 0.12607498
1.04154 -0.18722799 0.12860794
1.03705 -0.201015 0.12092094
1.03965 -0.19293199 0.12144195
1.04642 -0.189128 0.12078499
1.0348101 -0.199902 0.11569694
1.0382299 -0.19294901 0.11626595
1.04291 -0.186662 0.116754
1.04486 -0.17961 0.11653999
1.03636 -0.20012301 0.10879394
1.03846 -0.19357799 0.109907
1.04057 -0.18461001 0.11153694
1.04408 -0.17591999 0.11050896
1.03091 -0.19495001 0.10546196
1.0324299 -0.18753 0.10752899
1.03969 -0.18186899 0.10573097
1.04923 -0.176856 0.10276794
1.03424 -0.196264 0.097129971
1.03775 -0.19025499 0.099172972
1.0415699 -0.18186501 0.098698959
1.05146 -0.17778099 0.096806943
1.0315499 -0.195086 0.091639936
1.03711 -0.189641 0.092562944
1.0381501 -0.180318 0.094338
1.04872 -0.17718001 0.092160948
1.02876 -0.193452 0.087171935
1.03572 -0.19014201 0.086288989
1.03917 -0.18170001 0.087847978
1.04749 -0.177104 0.08579094
1.03474 -0.18763299 0.081677936
1.04458 -0.184156 0.078829959
1.0458599 -0.17679399 0.079013973
1.03734 -0.188829 0.074407957
1.04144 -0.18195999 0.073831938
1.03642 -0.18761499 0.068071976
1.03813 -0.17888901 0.069792941
1.03848 -0.17958 0.063484952
1.02791 -0.238892 0.14432396
1.07031 -0.20109899 0.14334595
1.03228 -0.194865 0.14801994
1.0475299 -0.192295 0.14467095
1.0686799 -0.19829901 0.13923393
1.06699 -0.188437 0.14104897
1.03264 -0.195131 0.14053696
1.0411299 -0.18843201 0.14108895
1.06083 -0.19170299 0.136959
1.06792 -0.188518 0.13541001
1.0387599 -0.23456 0.12334397
1.0262101 -0.20278999 0.13580498
1.03662 -0.198901 0.13265297
1.03423 -0.184559 0.136539
1.05492 -0.18829399 0.13299797
1.03558 -0.23161399 0.11982994
1.03037 -0.205448 0.12781295
1.03214 -0.193395 0.12894997
1.0368299 -0.185037 0.12893395
1.04487 -0.182172 0.12964997
1.0457901 -0.23960501 0.11132294
1.02783 -0.200527 0.12250794
1.0289199 -0.18862 0.12431198
1.03196 -0.180418 0.12514794
1.04085 -0.178968 0.12449997
1.02855 -0.199559 0.11570495
1.02829 -0.189851 0.11766998
1.03179 -0.18159401 0.119646
1.03694 -0.17623399 0.11924896
1.02297 -0.19407499 0.11203095
1.03185 -0.19116101 0.10936394
1.03318 -0.182272 0.112976
1.0386901 -0.17695899 0.11144195
1.02818 -0.19711901 0.10274094
1.0317501 -0.18990999 0.103283
1.03456 -0.182089 0.10596099
1.03951 -0.176557 0.10466293
1.0292 -0.19811898 0.095789947
1.03263 -0.191589 0.096172944
1.03572 -0.182253 0.098697968
1.04814 -0.18216901 0.095286943
1.03034 -0.19811001 0.088899001
1.0305001 -0.18959999 0.091100998
1.03597 -0.183439 0.091088943
1.03685 -0.174381 0.094256975
1.0307801 -0.18861 0.085188977
1.0362201 -0.18246599 0.084965974
1.03983 -0.176533 0.085600965
1.0271499 -0.186511 0.080582961
1.03222 -0.179491 0.080429994
1.0330501 -0.17086001 0.082216948
1.02952 -0.186221 0.073881991
1.03179 -0.17827801 0.073771976
1.0432299 -0.247814 0.10189193
1.04335 -0.25469801 0.103069
1.11507 -0.20605801 0.11101296
1.04441 -0.247831 0.096124955
1.04168 -0.25418502 0.095720977
1.11415 -0.20445101 0.10242897
1.0361199 -0.2534 0.088330001
1.12088 -0.206733 0.09951698
1.11218 -0.25472099 0.14692397
1.1104 -0.25469601 0.13995095
1.0506999 -0.248633 0.106987
1.06402 -0.247697 0.10475395
1.05302 -0.250808 0.10126198
1.0646 -0.26396298 0.10635597
1.07003 -0.25107801 0.10064499
1.0508699 -0.25040099 0.094325945
1.07021 -0.26688299 0.10299698
1.0507901 -0.25063801 0.088619992
1.10885 -0.23704299 0.14996296
1.10375 -0.233669 0.13944298
1.10657 -0.245296 0.14416893
1.10554 -0.25520301 0.145504
1.10346 -0.23344201 0.13083099
1.09917 -0.24106199 0.13317199
1.1085601 -0.23681 0.124832
1.1012 -0.233678 0.10365898
1.11594 -0.242318 0.09531296
1.07243 -0.237901 0.070087969
