# .PCD v0.7 - Point Cloud Data file format
VERSION 0.7
FIELDS x y z
SIZE 4 4 4
TYPE F F F
COUNT 1 1 1
WIDTH 724
HEIGHT 1
VIEWPOINT 0 0 0 1 0 0 0
POINTS 724
DATA ascii
1.08137 -0.458294 0.80229741
1.0888801 -0.46694902 0.80252564
1.0839801 -0.45693299 0.79453522
1.09007 -0.46654999 0.79286081
1.09068 -0.48197898 0.79522669
1.08529 -0.45658502 0.78510582
1.0913401 -0.46592602 0.7844947
1.09679 -0.47721803 0.78577745
1.0900199 -0.45216599 0.77622378
1.0932599 -0.46226102 0.77762437
1.0999199 -0.47389999 0.77639329
1.08912 -0.45251802 0.75314224
1.09363 -0.46268299 0.75201792
1.0859799 -0.455351 0.74473017
1.08654 -0.46576899 0.80704343
1.09264 -0.47391799 0.80622596
1.07411 -0.46087301 0.79871804
1.0886 -0.46338001 0.79965478
1.0885 -0.47571498 0.79863203
1.10086 -0.47999099 0.79899246
1.07433 -0.45901299 0.79145205
1.0803399 -0.46730801 0.79178804
1.09306 -0.47380298 0.79102248
1.09972 -0.48257199 0.79035616
1.08929 -0.46220401 0.78290373
1.0956 -0.47441399 0.78288811
1.07829 -0.45658901 0.77624953
1.09122 -0.458666 0.77454603
1.0982801 -0.469188 0.77478147
1.08013 -0.45532399 0.76817369
1.08775 -0.45072499 0.75984251
1.0982 -0.48653099 0.75145286
1.08881 -0.449323 0.74249005
1.09244 -0.44490799 0.73427439
1.08806 -0.44789201 0.72658193
1.09541 -0.452887 0.72696775
1.0927401 -0.45890599 0.71040255
1.08693 -0.46007597 0.70240915
1.08376 -0.47333899 0.80365229
1.09577 -0.47819501 0.80284804
1.06459 -0.47274503 0.79687315
1.09175 -0.46794498 0.79610479
1.0992199 -0.47754201 0.79535925
1.0799099 -0.46397999 0.78941834
1.09683 -0.46638301 0.78784513
1.10682 -0.47315499 0.78824592
1.08679 -0.459481 0.78038424
1.09793 -0.46491599 0.78004736
1.10435 -0.47538701 0.78082627
1.04091 -0.45389599 0.76850367
1.0848401 -0.45612597 0.77159613
1.09332 -0.464766 0.77333784
1.10299 -0.47299498 0.77307487
1.08314 -0.45468602 0.76443708
1.09343 -0.46446601 0.76553816
1.0781701 -0.44407201 0.7578209
1.0912499 -0.45256001 0.75761825
1.08743 -0.45078 0.75011331
1.08727 -0.43878898 0.74254572
1.0899401 -0.45273498 0.74252486
1.08803 -0.451489 0.73442274
1.09456 -0.446008 0.72685677
1.09141 -0.45077899 0.69613677
1.0866101 -0.47283402 0.79936427
1.0508 -0.46549597 0.79122508
1.07002 -0.46705601 0.79241967
1.08198 -0.47241402 0.79178351
1.0931801 -0.4806 0.7922014
1.07674 -0.462327 0.78511834
1.09517 -0.46725899 0.7850548
1.0906199 -0.45569098 0.7773115
1.09727 -0.46817699 0.77812499
1.0858101 -0.45600799 0.76942426
1.0766101 -0.44709599 0.76291716
1.08556 -0.443084 0.75520384
1.06958 -0.43619099 0.74850571
1.08593 -0.44154498 0.74754882
1.10306 -0.47587502 0.74890214
1.07926 -0.43370497 0.74101686
1.0969501 -0.46448001 0.71705246
1.09418 -0.45235699 0.71132165
1.10163 -0.44701999 0.70422256
1.09242 -0.465868 0.70332628
1.09287 -0.471064 0.80578196
1.09446 -0.46808898 0.79745775
1.0916001 -0.46666598 0.79071325
1.10133 -0.47552299 0.7918399
1.07054 -0.463218 0.78359276
1.10638 -0.47495899 0.78402412
1.03915 -0.44570598 0.77582389
1.04984 -0.45618001 0.77647734
1.06961 -0.46035001 0.77649927
1.0980101 -0.46286598 0.77766299
1.0868 -0.45417199 0.77022189
1.0734401 -0.446358 0.76331955
1.05398 -0.41788301 0.75707048
1.08779 -0.44038898 0.75648177
1.04547 -0.43273801 0.74893844
1.1040599 -0.48737201 0.74986261
1.09829 -0.50154901 0.75017625
1.07512 -0.433819 0.74238771
1.0893101 -0.43989602 0.74228156
1.09972 -0.46221402 0.74197435
1.03996 -0.43584701 0.73171228
1.09797 -0.46082601 0.71362001
1.09261 -0.465556 0.70604807
1.01697 -0.50395602 0.79970694
1.03968 -0.47183499 0.78595537
1.0393 -0.47113201 0.78029609
1.04641 -0.466885 0.78233701
1.0357801 -0.47999501 0.77389139
1.0363899 -0.46965599 0.77418244
1.04615 -0.46500701 0.77587157
1.0585999 -0.43687198 0.77649146
1.03631 -0.47947899 0.76908511
1.04063 -0.46217602 0.76931
1.03719 -0.44892502 0.76767576
1.03197 -0.48654997 0.76285833
1.0348899 -0.47775701 0.76385307
1.0335 -0.46660802 0.76355535
1.03398 -0.45663503 0.76222289
1.04249 -0.50128102 0.76025689
1.04023 -0.49200401 0.75986564
1.03886 -0.481419 0.7590661
1.03253 -0.46702802 0.75785607
1.03304 -0.45750099 0.7567032
1.03416 -0.44799 0.7569645
1.0415699 -0.49063098 0.75470006
1.0376899 -0.47859901 0.75387049
1.03378 -0.46694699 0.75233316
1.03207 -0.45563203 0.75145948
1.04456 -0.491171 0.74989974
1.03953 -0.47955102 0.74860334
1.03198 -0.46501201 0.74651027
1.0305001 -0.453168 0.74552405
1.03378 -0.445526 0.74594152
1.04892 -0.49070799 0.74426287
1.0345 -0.47477299 0.74186742
1.03282 -0.46383399 0.74119306
1.04891 -0.48272201 0.73873305
1.03456 -0.46666101 0.7368353
1.03347 -0.45627102 0.73603219
1.0317501 -0.46310699 0.73109198
1.0302501 -0.46060398 0.72509629
1.03142 -0.453282 0.7252714
1.0264701 -0.458009 0.71902937
1.02737 -0.449882 0.71904945
1.0345501 -0.46211201 0.71498036
1.0281 -0.451998 0.71392775
1.03573 -0.46191299 0.71014261
1.0247899 -0.44881901 0.70786452
1.02624 -0.43894798 0.70805717
1.0622799 -0.48985901 0.70578927
1.02777 -0.45773202 0.70330238
1.03018 -0.45151502 0.70350832
1.02757 -0.44174802 0.70321769
1.03026 -0.431474 0.70324606
1.0276899 -0.45015401 0.69845206
1.0344599 -0.463283 0.69316012
1.03514 -0.45486301 0.69410658
1.03213 -0.44271499 0.69358844
1.03432 -0.48757401 0.79388011
1.04784 -0.47184101 0.79530472
1.0507599 -0.46538502 0.79088402
1.0408599 -0.46852502 0.78212595
1.05198 -0.46443599 0.78451264
1.03908 -0.47759601 0.77686834
1.0391999 -0.46570599 0.77567887
1.0455201 -0.459571 0.77769297
1.03966 -0.44422698 0.77519423
1.03097 -0.47129601 0.76939744
1.03598 -0.46288398 0.76960945
1.0531601 -0.43294299 0.77240217
1.03825 -0.49961102 0.76636696
1.03029 -0.471486 0.76420462
1.03579 -0.464818 0.76472878
1.0393599 -0.45555303 0.76509118
1.0448 -0.43683898 0.76605994
1.04002 -0.48923302 0.76077098
1.0323501 -0.47203401 0.75931597
1.03309 -0.46076098 0.75914925
1.03553 -0.45125198 0.75871909
1.04118 -0.479054 0.75490171
1.03364 -0.46106499 0.75307077
1.03784 -0.45163199 0.75327957
1.04563 -0.48926601 0.75046915
1.03263 -0.47049499 0.74768931
1.03159 -0.45996103 0.74708009
1.03573 -0.45277402 0.74737012
1.04738 -0.488563 0.74387085
1.03406 -0.47249803 0.74274224
1.03313 -0.46088001 0.74208432
1.0368 -0.451435 0.74152237
1.05124 -0.48980498 0.73843145
1.03336 -0.47041902 0.73666841
1.03241 -0.45772898 0.7359578
1.03813 -0.47320801 0.73152578
1.0342 -0.46105301 0.73134208
1.03624 -0.450672 0.7306177
1.0360501 -0.46109599 0.72608382
1.03043 -0.45649201 0.71894598
1.0371801 -0.462203 0.71393877
1.0363801 -0.45969298 0.70794034
1.03016 -0.44375402 0.70747858
1.0400599 -0.46180001 0.70232654
1.0317299 -0.446255 0.70240289
1.04184 -0.46170199 0.69720495
1.03335 -0.44563499 0.69706082
1.03803 -0.46732301 0.78733313
1.04826 -0.46382001 0.7892766
1.02382 -0.48235402 0.77981001
1.0248899 -0.470864 0.77887022
1.04716 -0.46237901 0.7832998
1.02159 -0.47909001 0.77327275
1.0272599 -0.470662 0.77437627
1.03325 -0.46409199 0.77431947
1.0369899 -0.45388499 0.7750268
1.02327 -0.46500501 0.76163733
1.0256 -0.46877 0.75601667
1.03564 -0.48575199 0.75223631
1.02775 -0.470929 0.75043809
1.0257 -0.45736697 0.7495119
1.0281 -0.44494098 0.74907547
1.0363801 -0.48369801 0.74674124
1.02554 -0.46527401 0.74399406
1.02097 -0.44955298 0.74268639
1.0294499 -0.46752301 0.73866183
1.02301 -0.45234901 0.73735446
1.04954 -0.43679798 0.74045873
1.03778 -0.47282398 0.73334646
1.02617 -0.44439301 0.73164797
1.03216 -0.434953 0.73169166
1.0364499 -0.470788 0.72752851
1.02588 -0.454014 0.72625083
1.03758 -0.470927 0.72190785
1.01969 -0.44685102 0.71921378
1.04275 -0.475912 0.71643782
1.0242701 -0.452611 0.71381098
1.02107 -0.44818902 0.70741153
1.01571 -0.43204603 0.70607024
1.02586 -0.45442799 0.70232147
1.0279 -0.48928398 0.79904592
1.05387 -0.46967399 0.80198395
1.02227 -0.485551 0.79121894
1.04784 -0.46444598 0.79411018
1.04335 -0.45970699 0.78654695
1.06472 -0.46504602 0.79065371
1.02821 -0.46210098 0.77717513
1.03895 -0.456348 0.77874982
1.02154 -0.48248699 0.77262807
1.0232199 -0.46998 0.77155364
1.02991 -0.46150601 0.77181464
1.02514 -0.46918598 0.76567113
1.02929 -0.490188 0.76082557
1.02941 -0.47625199 0.76078659
1.02921 -0.46003699 0.75945783
1.03543 -0.49372798 0.75632596
1.02801 -0.460163 0.75241166
1.03499 -0.488098 0.74990869
1.02503 -0.46784303 0.74724144
1.02616 -0.45568803 0.7461136
1.02303 -0.46413299 0.74045396
1.02707 -0.46731201 0.7342068
1.0242 -0.45440701 0.73331201
1.0304101 -0.43571401 0.73334074
1.0285801 -0.46673599 0.72786123
1.02159 -0.448852 0.7267012
1.02801 -0.43148699 0.72592956
1.03091 -0.46862203 0.72129828
1.02361 -0.45192403 0.72106397
1.03439 -0.43270001 0.72021079
1.04083 -0.47747001 0.71653783
1.0274199 -0.45434102 0.71470362
1.02847 -0.45470002 0.708152
1.02877 -0.44259399 0.70880318
1.03627 -0.46347401 0.70323747
1.0263 -0.43920699 0.70185328
1.03555 -0.45872501 0.69727075
1.04096 -0.46518299 0.69185507
1.0346 -0.43516102 0.73739564
1.0434101 -0.43558702 0.74008512
1.03591 -0.42725602 0.73207849
1.01915 -0.42019698 0.71473241
1.01872 -0.44964299 0.70835358
1.0040799 -0.419949 0.70707124
1.0149601 -0.417422 0.70804375
1.02969 -0.46500197 0.7045173
1.01495 -0.41669899 0.70190966
1.02854 -0.461265 0.69867861
1.0157499 -0.44272599 0.79540461
1.0451599 -0.44792998 0.76504189
1.04921 -0.432926 0.76700866
1.06942 -0.42418098 0.75426847
1.0446 -0.43043998 0.76368982
1.05142 -0.42508 0.760355
1.05762 -0.41953701 0.75724387
1.0481 -0.42160198 0.75519556
1.0490899 -0.42061001 0.74569261
1.05057 -0.41423598 0.74750954
1.0435801 -0.41774201 0.74273604
1.04775 -0.41239399 0.7418232
1.0545601 -0.40854001 0.73852229
1.0436599 -0.41058701 0.73756224
1.04873 -0.40037999 0.70296252
1.0648201 -0.447225 0.80677122
1.06191 -0.44665402 0.80130219
1.05595 -0.42260799 0.75640166
1.04301 -0.43000999 0.75445306
1.0407 -0.42094502 0.75789046
1.04775 -0.417844 0.75482851
1.0410399 -0.42010102 0.75033206
1.0404299 -0.413261 0.75386167
1.05053 -0.411293 0.74658197
1.03967 -0.41765702 0.74310613
1.04151 -0.412561 0.74551934
1.05029 -0.41001499 0.73863721
1.0424501 -0.410135 0.72904295
1.03579 -0.40400398 0.72605407
1.0486799 -0.401362 0.70091569
1.08289 -0.46096098 0.80780268
1.07363 -0.455313 0.80718768
1.0655999 -0.45061299 0.80448091
1.05388 -0.45293599 0.80192012
1.06378 -0.44769502 0.79802167
1.04846 -0.46163699 0.79197717
1.05871 -0.44681197 0.79387152
1.05881 -0.445205 0.78609627
1.0463901 -0.44494802 0.77704656
1.06038 -0.42400399 0.77753478
1.04379 -0.44138101 0.76930231
1.04513 -0.43325999 0.7644825
1.04672 -0.424593 0.7683416
1.04724 -0.432336 0.74768776
1.05265 -0.41718301 0.75007254
1.04983 -0.41478598 0.7447874
1.05741 -0.41140997 0.74010801
1.0526299 -0.41469699 0.73439646
1.0562301 -0.40862501 0.73309046
1.04934 -0.407244 0.71274257
1.05391 -0.40289798 0.71080339
1.04432 -0.401833 0.70933563
1.04877 -0.39576998 0.70025027
1.04582 -0.46494901 0.80727774
1.08605 -0.456689 0.79347259
1.05796 -0.44727403 0.79154283
1.05171 -0.45072898 0.77617502
1.0742 -0.43214801 0.7567721
1.07382 -0.431833 0.74916631
1.0544699 -0.428184 0.75085801
1.05997 -0.42027599 0.74271017
1.0457801 -0.416408 0.74329621
1.04819 -0.40936798 0.7391668
1.05018 -0.40258598 0.74078614
1.08348 -0.46938899 0.80541205
1.0856 -0.466414 0.79710853
1.05325 -0.46845999 0.80057555
1.0956 -0.46277303 0.78650373
1.05713 -0.442287 0.79204893
1.05321 -0.40487498 0.75259405
1.06735 -0.40744799 0.74553686
1.0500801 -0.41314802 0.7435348
1.07794 -0.41609299 0.73130655
1.0468299 -0.41315898 0.73788697
1.0741 -0.412817 0.72722656
1.06112 -0.400812 0.70863366
1.04294 -0.40186501 0.69919014
1.11836 -0.447741 0.7960583
1.11967 -0.45841998 0.79513848
1.12888 -0.476087 0.79404181
1.1204699 -0.445308 0.78928864
1.12775 -0.46529701 0.78895396
1.11905 -0.44523898 0.77917176
1.11357 -0.44528401 0.75438237
1.11044 -0.46216801 0.73751634
1.11432 -0.42891997 0.73826021
1.11594 -0.41876203 0.73414087
1.11845 -0.42711398 0.73195291
1.11594 -0.42844701 0.71989274
1.1195301 -0.42483199 0.71243632
1.1214299 -0.46578097 0.79313117
1.13352 -0.47331297 0.7777791
1.10376 -0.47251901 0.73979551
1.11647 -0.39306802 0.7154091
1.02957 -0.439583 0.78906423
1.02159 -0.44453099 0.7849822
1.02653 -0.460242 0.76894134
1.03157 -0.46997201 0.76271421
1.0331 -0.45517102 0.75640416
1.03511 -0.48016602 0.75588739
1.03124 -0.46887198 0.7547316
1.03473 -0.45370799 0.74552673
1.03984 -0.43753299 0.73549253
1.04785 -0.483592 0.74107927
1.0399801 -0.47770199 0.74397254
1.03345 -0.46955502 0.74468404
1.03461 -0.45547903 0.73689324
1.04082 -0.477088 0.73563737
1.03808 -0.46478099 0.73044753
1.0319999 -0.45473701 0.72972101
1.04131 -0.462286 0.71802157
1.0304101 -0.45891398 0.72395766
1.0455999 -0.46811402 0.71077609
1.0399899 -0.46174702 0.70956522
1.03406 -0.45535702 0.71200097
1.03125 -0.44363099 0.70774531
1.03657 -0.45201501 0.69972211
1.03114 -0.44167098 0.69820684
1.05217 -0.47064701 0.80459052
1.04274 -0.462688 0.79098678
1.05275 -0.44398499 0.77994776
1.04049 -0.47162202 0.78800803
1.0406899 -0.462026 0.78301287
1.04461 -0.44833198 0.77702355
1.03801 -0.46398899 0.77711844
1.0369 -0.443005 0.77005577
1.0323 -0.469203 0.77214617
1.03231 -0.458018 0.76950264
1.03084 -0.46987998 0.76548094
1.0341001 -0.45545101 0.75751078
1.04477 -0.435936 0.74371332
1.04329 -0.42766997 0.74254417
1.04027 -0.484869 0.75556391
1.03309 -0.47879001 0.75887227
1.033 -0.46788201 0.75582999
1.03056 -0.459645 0.75256956
1.0427899 -0.42686799 0.73343611
1.03765 -0.495242 0.75492501
1.04668 -0.48174 0.74381864
1.03724 -0.47786999 0.74766135
1.0288501 -0.47168899 0.75150239
1.03067 -0.458915 0.74414897
1.034 -0.445306 0.73582816
1.0363201 -0.43110803 0.72898537
1.03432 -0.47866601 0.74209899
1.031 -0.46948397 0.74049795
1.0283 -0.45898899 0.73754013
1.01503 -0.42598203 0.73327905
1.0342 -0.466353 0.72936952
1.02343 -0.462374 0.73358864
1.02869 -0.45716098 0.71978056
1.02543 -0.44914201 0.71676409
1.0276 -0.43702599 0.71068114
1.0268199 -0.43580002 0.70133889
1.04467 -0.46926299 0.80644816
1.0426201 -0.46812698 0.79864192
1.03921 -0.46085301 0.7904526
1.03967 -0.45126802 0.77975845
1.0265 -0.497114 0.79533076
1.03233 -0.474338 0.78272939
1.03872 -0.45041698 0.76893198
1.0287499 -0.47559899 0.77695191
1.03134 -0.46305001 0.77035958
1.0345 -0.451758 0.76457244
1.02809 -0.485367 0.77297521
1.02961 -0.47456601 0.7670933
1.02657 -0.46602499 0.76647657
1.0314801 -0.45362401 0.75960219
1.03845 -0.48842099 0.75848955
1.0314701 -0.483836 0.7616846
1.024 -0.46773601 0.76022935
1.0315499 -0.45279801 0.75026405
1.03531 -0.48204201 0.75112402
1.0281501 -0.47583902 0.75233412
1.02652 -0.46674001 0.74977356
1.02318 -0.45871699 0.74893999
1.03415 -0.48060501 0.7439785
1.03459 -0.47071201 0.73821157
1.0243 -0.46668899 0.74322981
1.02459 -0.45550799 0.73831779
1.02264 -0.44729301 0.73576188
1.0341201 -0.460601 0.72693038
1.01992 -0.459263 0.73536986
1.0198101 -0.44936502 0.73075318
1.0216401 -0.439356 0.72434545
1.0095401 -0.43853 0.73031205
1.02249 -0.45543301 0.72460747
1.02159 -0.44642299 0.72064668
1.02184 -0.43831402 0.71563369
1.0210199 -0.44538897 0.71247435
1.02864 -0.43882301 0.69497764
1.02163 -0.47717997 0.78241068
1.0165 -0.50474703 0.78918725
1.02018 -0.48480499 0.7790094
1.0501599 -0.45960701 0.80575907
1.08307 -0.47315702 0.80196905
1.05997 -0.44145098 0.77530563
1.06792 -0.460235 0.78294379
1.0908899 -0.47481 0.79836524
1.07938 -0.462906 0.78105283
1.0960801 -0.47637001 0.79255033
1.079 -0.454519 0.77228212
1.08617 -0.465482 0.77696455
1.1015201 -0.47782099 0.78707904
1.0928 -0.46791303 0.7730543
1.05636 -0.457966 0.80458796
1.05562 -0.44894698 0.78387421
1.0732599 -0.46403 0.79636919
1.08638 -0.46672699 0.79661399
1.09399 -0.47846299 0.80431712
1.0810701 -0.45629299 0.78505164
1.0753701 -0.46705398 0.79100919
1.09259 -0.47328499 0.79409194
1.074 -0.44561401 0.76788157
1.08612 -0.46092099 0.77858245
1.08599 -0.45854402 0.76717532
1.09614 -0.473685 0.77847052
1.08796 -0.460563 0.7587291
1.08046 -0.44543701 0.73975128
1.0774 -0.42595199 0.72528434
1.1074901 -0.477281 0.74676085
1.05942 -0.44132301 0.78270125
1.07105 -0.45807499 0.79138267
1.08534 -0.46607101 0.79049391
1.08586 -0.45541999 0.77842981
1.0893101 -0.46684501 0.7834571
1.0922 -0.48038101 0.78945762
1.08716 -0.45542702 0.76938581
1.09433 -0.46874297 0.77742505
1.10098 -0.48360801 0.7842924
1.01682 -0.50356901 0.79993582
1.01373 -0.50333899 0.79380441
1.02767 -0.47016498 0.77685249
1.02684 -0.46063 0.77111274
1.0271701 -0.47094002 0.76453185
1.0254799 -0.459286 0.76475859
1.02896 -0.46808299 0.75788748
1.0290899 -0.45572603 0.75884157
1.03284 -0.475979 0.75253874
1.02894 -0.46916801 0.75080621
1.02827 -0.45793498 0.75205457
1.03555 -0.47465801 0.74588102
1.03611 -0.46479303 0.7459566
1.0274299 -0.459748 0.74517751
1.02872 -0.48003602 0.73903298
1.02985 -0.46948799 0.73958534
1.023 -0.46229699 0.73831213
1.03136 -0.47742802 0.73277098
1.02746 -0.46906701 0.73289925
1.0245301 -0.44571498 0.73248655
1.0407901 -0.42445701 0.73459792
1.02483 -0.472453 0.7264061
1.02082 -0.46346298 0.72700518
1.0213 -0.449469 0.72620112
1.0204 -0.43808201 0.72660613
1.02033 -0.48533601 0.71938729
1.03002 -0.468853 0.72051346
1.0195301 -0.46448398 0.72082335
1.0219899 -0.44922698 0.71975303
1.01721 -0.43939799 0.71974736
1.02001 -0.42736399 0.72090346
1.03028 -0.46790799 0.71483278
1.02983 -0.45583099 0.7143786
1.02073 -0.447144 0.71374053
1.01249 -0.44106901 0.71324706
1.0134101 -0.43156397 0.71446526
1.03528 -0.46167001 0.70830327
1.03234 -0.45382401 0.70825487
1.02679 -0.445611 0.7076838
1.0163701 -0.43979698 0.70799536
1.00976 -0.43350202 0.70739174
1.03509 -0.45165598 0.70273596
1.02985 -0.443506 0.70151198
1.01753 -0.43844399 0.70117897
1.01466 -0.42616099 0.70030975
1.02272 -0.44676399 0.69577062
1.01994 -0.49515301 0.79870683
1.02009 -0.48459703 0.79764307
1.01615 -0.50861096 0.79119664
1.02636 -0.48919103 0.78732467
1.03362 -0.47324198 0.7776978
1.0356899 -0.472464 0.77123731
1.0256801 -0.46899799 0.77040941
1.03588 -0.472141 0.76544899
1.0300599 -0.46704799 0.76501048
1.0424 -0.480095 0.7597571
1.0244 -0.47047502 0.75849015
1.04136 -0.47906503 0.75369728
1.03488 -0.47381699 0.75390679
1.0274501 -0.46888301 0.75299692
1.0317199 -0.47400799 0.74754411
1.0331401 -0.465085 0.74770552
1.0340199 -0.47226799 0.74148309
1.03141 -0.466048 0.74222654
1.0453 -0.46758097 0.73531187
1.03136 -0.46707299 0.7360245
1.02184 -0.427174 0.73416311
1.03712 -0.41044301 0.73617816
1.0351501 -0.464724 0.72927386
1.01376 -0.432221 0.72826147
1.03837 -0.470523 0.72305876
1.02912 -0.46484402 0.72228324
1.01373 -0.43236199 0.72228414
1.0152401 -0.42494598 0.7240535
1.0362101 -0.472121 0.71729934
1.02947 -0.46436799 0.71662641
1.0138301 -0.43241 0.71631616
1.01245 -0.42688802 0.71784699
1.04058 -0.47021902 0.71206307
1.02871 -0.46386501 0.71104288
1.01122 -0.427959 0.71160769
1.01788 -0.43082199 0.70514727
1.01442 -0.42600498 0.70504975
1.0231199 -0.47823602 0.79165095
1.02525 -0.47734299 0.78624099
1.02442 -0.47974899 0.78140402
1.04092 -0.48326999 0.77739495
1.02891 -0.465922 0.77064496
1.0219799 -0.458994 0.77068788
1.03286 -0.47634399 0.76582259
1.03091 -0.46663502 0.76533097
1.02245 -0.45785701 0.76458985
1.02985 -0.46466401 0.7592659
1.01651 -0.46012002 0.75798255
1.01843 -0.44007802 0.76048487
1.02843 -0.465177 0.7534216
1.0274199 -0.456305 0.7543956
1.01397 -0.44375899 0.75334662
1.02802 -0.466667 0.7478866
1.0241899 -0.45727298 0.74887502
1.0153099 -0.442799 0.74757379
1.03836 -0.470844 0.74364251
1.0286 -0.46532798 0.74194807
1.02136 -0.45772499 0.74255586
1.0446 -0.467738 0.73801214
1.03065 -0.466097 0.73685056
1.02157 -0.459189 0.7362622
1.01955 -0.449099 0.73741251
1.0362201 -0.47318402 0.73076701
1.02604 -0.466095 0.73090225
1.0188401 -0.45968497 0.73078066
1.01993 -0.448892 0.73132265
1.02213 -0.43679401 0.73042321
1.02829 -0.46708697 0.72494966
1.0223 -0.45728803 0.72583854
1.02446 -0.44452998 0.72619599
1.0183899 -0.437711 0.72459787
1.03262 -0.422667 0.72698647
1.03329 -0.47506303 0.7195968
1.03388 -0.46433103 0.72012156
1.02556 -0.45771599 0.71958971
1.0178 -0.44844398 0.71992552
1.01805 -0.436885 0.71911538
1.0358599 -0.47519699 0.71413958
1.03306 -0.46497798 0.7146129
1.02833 -0.455401 0.71371412
1.0191799 -0.44999501 0.71455312
1.01616 -0.43957099 0.71373117
1.045 -0.46924198 0.70946532
1.0398899 -0.45903701 0.70925111
1.03308 -0.45162299 0.70879096
1.02214 -0.44740298 0.70936698
1.01669 -0.42766997 0.70847076
1.0261101 -0.44494301 0.70413399
1.01678 -0.42873901 0.70319819
1.01969 -0.41552299 0.70294017
1.02999 -0.44192001 0.69899702
1.02716 -0.43391702 0.69748789
1.01627 -0.40612701 0.69703668
1.0173301 -0.43501899 0.74232537
1.00525 -0.43875998 0.73636556
1.02364 -0.42565602 0.73816216
1.03531 -0.412076 0.73332518
1.01776 -0.42402598 0.72641855
1.02513 -0.41483897 0.72766447
1.0136399 -0.42484 0.72119284
1.02166 -0.41541198 0.72222596
1.02984 -0.40584999 0.72366625
1.01666 -0.41696203 0.71648717
1.02298 -0.40847698 0.71772659
1.0157 -0.41626799 0.71091759
1.0174199 -0.409605 0.71109945
1.01896 -0.41366401 0.70547187
1.01661 -0.40783599 0.70482385
1.00782 -0.417981 0.69953835
1.0166 -0.40710899 0.69997078
0.99127197 -0.42535999 0.69485581
1.12877 -0.46997201 0.79686773
1.1185501 -0.44692698 0.79093862
1.09393 -0.431003 0.77955931
1.09975 -0.43152601 0.77259409
1.0984401 -0.430327 0.76544899
1.12681 -0.45688999 0.7643683
1.10953 -0.43206799 0.75121826
1.11798 -0.43241701 0.73741585
1.11631 -0.42230999 0.73107564
1.1261699 -0.45698002 0.73063147
1.11131 -0.410519 0.72482353
1.11507 -0.42188302 0.72452354
1.1189801 -0.43296599 0.72561365
1.10789 -0.40758097 0.71837348
1.11516 -0.43215302 0.71898162
1.11992 -0.41137099 0.7117781
1.12176 -0.42365897 0.71213961
1.12436 -0.43546903 0.71267158
1.1124099 -0.40816003 0.70511568
1.1223999 -0.43353298 0.70613235
1.09407 -0.45062697 0.70697778
1.12992 -0.42426699 0.69978195
1.12351 -0.465592 0.79685128
1.1215301 -0.46668398 0.79057431
1.10034 -0.43663898 0.77908242
1.11509 -0.452279 0.77794456
1.08638 -0.42328799 0.77399796
1.10839 -0.43952399 0.77192521
1.12349 -0.45451 0.77114904
1.12558 -0.45330101 0.7643528
1.11904 -0.441625 0.72981852
1.1245099 -0.435155 0.72480994
1.11922 -0.44091597 0.72373205
1.1220601 -0.43433997 0.71860987
1.12225 -0.43429101 0.71188468
1.11093 -0.43905899 0.75631148
1.11428 -0.42236099 0.73695076
1.11247 -0.42093799 0.72906679
1.11694 -0.42144501 0.72260344
1.1173201 -0.43095502 0.72315818
1.12111 -0.423343 0.71640104
1.11941 -0.431247 0.71682006
1.1167099 -0.42887101 0.70897865
1.12174 -0.47595298 0.79902619
1.12529 -0.46736199 0.79231763
1.1048501 -0.47283599 0.73594636
1.08806 -0.45736599 0.70961654
1.05477 -0.49145499 0.79601014
