# .PCD v0.7 - Point Cloud Data file format
VERSION 0.7
FIELDS x y z
SIZE 4 4 4
TYPE F F F
COUNT 1 1 1
WIDTH 260
HEIGHT 1
VIEWPOINT 0 0 0 1 0 0 0
POINTS 260
DATA ascii
1.05985 -0.583996 1.0472089
1.08603 -0.58411998 1.0497969
1.09703 -0.58001596 1.053043
1.09439 -0.577492 1.0454259
1.04324 -0.53998798 1.0037789
1.0903701 -0.55051303 1.022966
1.14324 -0.547198 1.040092
1.04067 -0.57206404 1.00097
1.0306 -0.55433202 0.99598801
1.02253 -0.538369 0.9914459
1.0302501 -0.53141803 0.99306399
1.04397 -0.52820998 0.99689096
1.04136 -0.56108099 0.99458295
1.0448101 -0.55097502 0.99378294
1.0462999 -0.51859599 0.99118596
1.04807 -0.56346899 0.99082899
1.06713 -0.51572901 0.99154395
1.11541 -0.51648802 1.000885
1.05612 -0.59106702 1.0438839
1.06855 -0.58718699 1.047268
1.0949299 -0.57816499 1.052876
1.06661 -0.58520103 1.039809
1.09806 -0.580567 1.049333
1.04791 -0.57196701 1.025317
1.09358 -0.57677299 1.0408089
1.1039 -0.569116 1.0369359
1.0273401 -0.54495901 1.002041
1.16295 -0.54381698 1.043161
1.02495 -0.53086495 0.992755
1.03386 -0.52378798 0.99381393
1.04958 -0.521487 0.99700195
1.03373 -0.56073797 0.99365395
1.04661 -0.51919699 0.99140197
1.05934 -0.51596999 0.99416995
1.04425 -0.56928802 0.991
1.05072 -0.559627 0.99207199
1.08865 -0.52013302 0.99826795
1.06221 -0.58612996 1.0512999
1.06013 -0.58326501 1.043335
1.02644 -0.58337998 1.026906
1.05792 -0.580962 1.0355859
1.09313 -0.57920599 1.046082
1.15272 -0.55442798 1.058689
1.04813 -0.57315803 1.025001
1.13273 -0.55108297 1.0454739
1.0282199 -0.52471602 0.99608797
1.04089 -0.52069801 0.99865896
1.17186 -0.53758997 1.039789
1.0254 -0.579575 0.99772698
1.02432 -0.52322298 0.99005294
1.0335701 -0.51626801 0.99144799
1.04766 -0.513879 0.99479294
1.05537 -0.508026 0.99530393
1.03195 -0.57381898 0.992643
1.0327201 -0.55920202 0.99128199
1.05138 -0.59118003 1.0403939
1.06429 -0.58784801 1.043641
1.09378 -0.58478296 1.0510969
1.05926 -0.58411902 1.0344769
1.09984 -0.57372302 1.043913
1.04807 -0.574467 1.02326
1.09201 -0.582259 1.036374
1.13411 -0.55372697 1.042079
1.1724 -0.53981203 1.041153
1.02343 -0.53465599 0.99475598
1.0348001 -0.52585399 0.99509501
1.01631 -0.57002497 0.991745
1.03232 -0.54206198 0.99227601
1.04334 -0.51914603 0.99152493
1.0552601 -0.515827 0.99489397
1.0624601 -0.50736403 0.99433398
1.0375199 -0.56221002 0.9902699
1.0693699 -0.58492601 1.051906
1.0629799 -0.57961798 1.0427769
1.0439299 -0.58798301 1.032406
1.06725 -0.58130801 1.036582
1.0932499 -0.57215601 1.0411359
1.05129 -0.56528598 1.021999
1.04223 -0.51979196 1.0021989
1.05137 -0.51504302 1.003351
1.0298101 -0.53929901 0.99836296
1.03228 -0.52378899 0.99627596
1.03824 -0.51501799 0.995125
1.0410299 -0.50383902 0.99370193
1.0258 -0.55249697 0.99088502
1.0293599 -0.53875703 0.99044603
1.14967 -0.55201602 1.0629829
1.15379 -0.54341102 1.062604
1.16664 -0.53755301 1.059917
1.09311 -0.59737498 1.0184219
1.07719 -0.54816401 1.025136
1.1039701 -0.50625598 1.0106709
1.0480599 -0.59689498 1.003073
1.04608 -0.59607399 0.9975279
1.09238 -0.535586 0.99334198
1.07322 -0.54398203 0.99236494
1.08073 -0.53653198 0.99103093
1.06531 -0.540344 0.990655
1.05127 -0.51251298 0.99114698
1.16359 -0.53875703 1.06205
1.16618 -0.53745997 1.054356
1.09084 -0.60074103 1.0195709
1.09369 -0.602772 1.011672
1.0758799 -0.54569697 1.028029
1.04607 -0.59646702 1.002825
1.08446 -0.53692102 0.99803102
1.09927 -0.533777 0.99385893
1.07459 -0.53231001 0.99602491
1.07655 -0.52106798 0.99961901
1.0584301 -0.55508399 0.99001998
1.0596399 -0.54546398 0.993182
1.06602 -0.53771901 0.99150497
1.06259 -0.52351999 0.99717194
1.06023 -0.50962502 1.002061
1.05024 -0.53925902 0.99125999
1.05214 -0.51577497 0.99725693
1.05738 -0.509004 0.99590701
1.0624501 -0.50079101 0.99835896
1.02319 -0.52206302 1.000317
1.0345501 -0.51875299 0.99565697
1.04954 -0.51595598 0.99082398
1.0205899 -0.52050203 0.99488097
1.16144 -0.55382198 1.063224
1.1647201 -0.54403502 1.063951
1.07985 -0.57610101 1.060107
1.0741401 -0.58149999 1.0528979
1.10717 -0.519934 1.0291259
1.0783 -0.54675901 1.025044
1.0865799 -0.53923601 0.995179
1.0933599 -0.53082001 0.99506795
1.06047 -0.53341001 0.99763495
1.0709 -0.52688402 0.99755895
1.05041 -0.53759497 0.99308997
1.0476 -0.52365798 0.99790895
1.06295 -0.52105898 0.99354994
1.06542 -0.50828701 0.99688697
1.02016 -0.524876 1.0003259
1.0341001 -0.52377898 0.99674696
1.0486699 -0.52325201 0.99084002
1.02992 -0.52226502 0.99155998
1.15569 -0.55716997 1.0619949
1.13732 -0.57126403 1.056356
1.14871 -0.56352103 1.0563129
1.0693699 -0.58324796 1.031438
1.06543 -0.58328402 1.02326
1.0816799 -0.55291599 1.029909
1.10848 -0.51832199 1.030141
1.07708 -0.548316 1.025636
1.0367 -0.60632199 1.0027369
1.0545601 -0.58684701 1.00349
1.09794 -0.53608203 0.99949396
1.07822 -0.532704 0.99975997
1.0787899 -0.517717 1.0033699
1.0304 -0.54647499 1.000038
1.0450599 -0.54683298 0.99629998
1.0503 -0.53648102 0.99789095
1.0579901 -0.52884996 0.997419
1.06977 -0.52408403 0.99645293
1.0370201 -0.52862704 0.99748594
1.05001 -0.52522999 0.99407297
1.06244 -0.521047 0.99141693
1.10972 -0.57525003 1.073173
1.16107 -0.553729 1.066584
1.14122 -0.56868899 1.060442
1.1517199 -0.56072402 1.059777
1.16524 -0.54011202 1.062349
1.08373 -0.577555 1.0630059
1.09242 -0.57477003 1.0620589
1.1756999 -0.54584098 1.050046
1.07596 -0.55254698 1.024776
1.05422 -0.54266602 0.99995595
1.0695701 -0.52979696 0.99943495
1.0476999 -0.53609502 0.99620599
1.05976 -0.53591597 0.99339598
1.06863 -0.52828604 0.99170196
1.07673 -0.51859003 0.99481094
1.1031801 -0.49130797 0.994331
1.16081 -0.55873299 1.0611539
1.1679 -0.54582399 1.059687
1.0669399 -0.590285 1.039281
1.0684201 -0.586303 1.0292239
1.08629 -0.53195596 1.003112
1.0889601 -0.51822698 0.99864095
1.10052 -0.60157198 1.006821
1.07911 -0.54325503 0.99101096
1.07866 -0.54509997 1.028711
1.06032 -0.58256304 1.0317219
1.0587001 -0.58042401 1.024263
1.0901899 -0.60782796 1.011078
1.06408 -0.58411497 1.0447021
1.05897 -0.58696902 1.040092
1.05734 -0.58750302 1.034135
1.08053 -0.60270303 1.0037659
1.08297 -0.60156602 0.99491996
1.0524601 -0.56189996 0.99453092
1.0383101 -0.57361197 0.99958694
1.04741 -0.56264299 0.99195099
1.07049 -0.54538298 1.029292
1.04564 -0.58962798 1.0354069
1.05829 -0.56156802 1.024755
1.06803 -0.50714803 1.003634
1.06311 -0.50707799 0.99955994
1.0467501 -0.56379902 0.99425995
1.03362 -0.57743901 0.99722594
1.0376899 -0.51345301 1.0144939
1.1525 -0.53786397 1.0566939
1.16916 -0.54783797 1.065045
1.15889 -0.55865103 1.0616729
1.15169 -0.52991599 1.049459
1.16721 -0.53866601 1.0568249
1.17942 -0.53162497 1.055854
1.11018 -0.59049898 1.0123069
1.10461 -0.59827 1.008214
1.0937899 -0.59802604 0.99451399
1.15828 -0.54904097 1.064376
1.16567 -0.54064202 1.06012
1.1691201 -0.54908502 1.0623211
1.1633999 -0.531353 1.050115
1.09575 -0.59770697 1.022157
1.08981 -0.59706503 1.010684
1.1135299 -0.58823895 1.015233
1.0960801 -0.598086 1.0219899
1.0716799 -0.60344899 1.0107731
1.09296 -0.59702897 1.0118179
1.15692 -0.54950297 1.0668069
1.16783 -0.55160999 1.0627769
1.1799099 -0.53392702 1.055217
1.17191 -0.54117799 1.046579
1.086 -0.60049802 1.011753
1.1039901 -0.59366101 1.0102409
1.0951999 -0.59210801 0.99727601
1.04425 -0.562038 1.0254979
1.0446299 -0.56869799 1.021109
1.0484201 -0.55962002 1.022792
1.0457901 -0.56841898 1.016858
1.0302501 -0.51290399 1.0032489
1.01863 -0.57673401 0.99298799
1.0312001 -0.51249599 1.000253
1.0411 -0.50780797 0.99923402
1.14612 -0.58384997 1.003087
1.1463 -0.58533102 1.012144
1.13764 -0.58519799 1.0069909
1.1365399 -0.58527398 1.001225
1.03861 -0.50624102 1.0131789
1.05284 -0.50073701 1.0046821
1.05248 -0.49976701 0.99940699
1.05695 -0.50978899 0.99310899
1.17164 -0.54563302 1.053695
1.14 -0.58699501 1.0179199
1.13834 -0.58475298 1.01113
1.1032901 -0.58959401 1.008873
1.11133 -0.50458699 1.005147
1.176 -0.53693199 1.0495189
1.15777 -0.54596597 1.052399
1.1354901 -0.586685 1.018434
1.17452 -0.52873904 1.048522
1.14297 -0.58348101 1.0191799
1.13445 -0.58141702 1.013554
1.13275 -0.57976896 1.006184
1.09433 -0.58836299 1.0098579
