# .PCD v0.7 - Point Cloud Data file format
VERSION 0.7
FIELDS x y z
SIZE 4 4 4
TYPE F F F
COUNT 1 1 1
WIDTH 1555
HEIGHT 1
VIEWPOINT 0 0 0 1 0 0 0
POINTS 1555
DATA ascii
1.0682399 -0.264422 0.44325498
1.08295 -0.269777 0.44533098
1.08375 -0.28197598 0.44445696
1.08929 -0.29395902 0.44482195
1.0966201 -0.30668801 0.44620097
1.06138 -0.25755399 0.43495297
1.06874 -0.263834 0.43595996
1.07391 -0.27397799 0.43649796
1.0806099 -0.285772 0.43607894
1.0859799 -0.29628599 0.43614197
1.0573699 -0.260539 0.42623597
1.06988 -0.26501101 0.42889896
1.07709 -0.27541199 0.42951199
1.0800099 -0.28712401 0.42763597
1.0713301 -0.264846 0.42082694
1.0763301 -0.27530599 0.42151195
1.0847 -0.283766 0.42164794
1.07137 -0.265807 0.41205296
1.0780001 -0.27263999 0.41430897
1.0832599 -0.283398 0.41413099
1.08753 -0.2816 0.39972296
1.09111 -0.256488 0.39408299
1.0916899 -0.267923 0.39272895
1.09598 -0.26309901 0.38767499
1.09351 -0.277172 0.38550597
1.09631 -0.26270801 0.38001698
1.09263 -0.279284 0.37710798
1.08788 -0.29259002 0.37363395
1.09167 -0.26773301 0.37002599
1.09627 -0.279219 0.37072599
1.0862401 -0.269171 0.35988796
1.09201 -0.28030699 0.36209598
1.08336 -0.257128 0.35382298
1.0842299 -0.269517 0.35198596
1.08713 -0.28229201 0.35195094
1.0828099 -0.246833 0.34723094
1.08288 -0.258948 0.34612599
1.09322 -0.27938101 0.34506997
1.08476 -0.29429799 0.34319595
1.08542 -0.24319701 0.33889094
1.08763 -0.25396001 0.34036395
1.09006 -0.26691201 0.33940998
1.09286 -0.279201 0.33685899
1.09209 -0.290149 0.33722296
1.09136 -0.25239098 0.33302796
1.08936 -0.26891801 0.33120894
1.10024 -0.275556 0.33189395
1.09289 -0.28934801 0.32898197
1.08749 -0.24120001 0.32603797
1.09245 -0.25210699 0.32443595
1.09411 -0.266523 0.32493296
1.09887 -0.27702498 0.32520998
1.08216 -0.29450899 0.31861097
1.09027 -0.239098 0.31941795
1.09575 -0.24991199 0.31755695
1.09987 -0.26149499 0.31835198
1.10261 -0.27314299 0.31955296
1.09226 -0.23802401 0.31181198
1.08989 -0.252323 0.30904397
1.09947 -0.259747 0.31045794
1.10557 -0.26906002 0.31131297
1.08959 -0.23740201 0.30365497
1.09272 -0.250283 0.30295497
1.10253 -0.26017499 0.30295998
1.10532 -0.258194 0.29565597
1.10183 -0.26166201 0.28635898
1.10268 -0.26166001 0.23990497
1.10457 -0.26198098 0.23306797
1.1030101 -0.246718 0.22611596
1.10448 -0.260672 0.22580196
1.1030101 -0.26017702 0.21661396
1.11067 -0.23355499 0.20608398
1.1152301 -0.241597 0.20605698
1.11254 -0.229001 0.19832695
1.11017 -0.242742 0.19644798
1.10584 -0.25664198 0.19200298
1.11505 -0.227983 0.19202995
1.10404 -0.24679899 0.18494599
1.10341 -0.25867 0.18395194
1.10726 -0.23261499 0.18126397
1.11233 -0.240916 0.18022995
1.1126599 -0.218556 0.17698696
1.1116999 -0.229003 0.17523396
1.10895 -0.24334499 0.17092396
1.10748 -0.22053301 0.16736495
1.1078601 -0.231181 0.16482498
1.10543 -0.220121 0.15709297
1.08885 -0.423421 0.65341699
1.0768399 -0.439491 0.65146995
1.09104 -0.41009 0.64708692
1.0864199 -0.42337799 0.646604
1.09445 -0.39230499 0.63913798
1.0882 -0.405653 0.63221598
0.99128699 -0.32709599 0.60011595
1.09051 -0.39003 0.61025196
1.08718 -0.39185601 0.60226196
1.09367 -0.37829497 0.59638596
1.08656 -0.39144501 0.59493196
1.03298 -0.33298099 0.58540595
1.08604 -0.36850399 0.58870697
1.0871199 -0.37998298 0.58869797
1.07724 -0.39476398 0.58639497
1.0458 -0.32868001 0.57910299
1.0914 -0.35136199 0.58215094
1.0882499 -0.36652499 0.58209592
1.08146 -0.38151601 0.58018899
1.08373 -0.34333301 0.57504696
1.0822001 -0.35736302 0.57478195
1.0814 -0.369497 0.57351995
1.0423599 -0.30404401 0.56585199
1.08164 -0.32946301 0.56752896
1.08225 -0.341176 0.56834799
1.08415 -0.35440299 0.56791997
1.0524299 -0.30184799 0.56001097
1.05997 -0.30992001 0.55913699
1.0734401 -0.316825 0.55895799
1.07473 -0.33073199 0.55966395
1.0835 -0.34097901 0.56173193
1.0582299 -0.299999 0.55296499
1.0695601 -0.305713 0.55287695
1.07758 -0.314428 0.55288798
1.08408 -0.32437199 0.55390197
1.03847 -0.294801 0.54042196
1.06323 -0.29562598 0.54482698
1.07388 -0.30497301 0.54640394
1.08232 -0.31449601 0.54770797
1.04526 -0.29154 0.53612798
1.06323 -0.293044 0.53775793
1.0712301 -0.30190501 0.53872699
1.0818 -0.31298402 0.54032099
1.04855 -0.28999001 0.53007799
1.06955 -0.29149699 0.53195691
1.07522 -0.30232099 0.53215599
1.08406 -0.31268701 0.53289795
1.0589 -0.286699 0.52419794
1.0723701 -0.29195201 0.52458799
1.0803701 -0.301981 0.52608997
1.0643001 -0.28490299 0.51669699
1.06995 -0.29217499 0.51711494
1.07445 -0.30270398 0.51734596
1.0641301 -0.28377801 0.50854599
1.0687001 -0.29289699 0.50987101
0.98420501 -0.29032001 0.48762298
1.06251 -0.28372899 0.50135994
1.06584 -0.292169 0.501589
1.00001 -0.28454301 0.48300698
1.0675 -0.28272101 0.49509993
1.07337 -0.291675 0.49563897
1.0011799 -0.27478999 0.47797194
1.0155001 -0.280738 0.47756699
1.06682 -0.28124398 0.48708797
1.0698301 -0.29107201 0.48820198
1.0071499 -0.26309699 0.47020599
1.05277 -0.28150201 0.47724998
1.07098 -0.289814 0.48072097
1.0078399 -0.263019 0.46360096
1.04577 -0.27235001 0.46909398
1.07146 -0.277812 0.47382897
1.08117 -0.28847098 0.47468498
1.0094301 -0.26375201 0.45765099
1.03624 -0.26408899 0.46205294
1.05428 -0.26788199 0.46351096
1.066 -0.27656499 0.46517396
1.0809101 -0.28564799 0.46722198
1.04465 -0.26197702 0.45672497
1.06628 -0.265791 0.45851696
1.0807099 -0.27411801 0.46099797
1.09207 -0.28203601 0.46246296
1.09558 -0.29384601 0.46221498
1.09914 -0.306923 0.46154496
1.05661 -0.25895301 0.45016396
1.06733 -0.26529101 0.45111495
1.07197 -0.275197 0.45245597
1.08966 -0.28253201 0.45460796
1.10199 -0.29238001 0.45583797
1.1035501 -0.303599 0.45649394
1.09183 -0.32213902 0.45278397
1.05288 -0.259525 0.44213498
1.06505 -0.26426899 0.44390598
1.0746399 -0.27362001 0.44549298
1.08804 -0.28181699 0.44643196
1.09165 -0.294211 0.44656998
1.1042199 -0.30373201 0.45025295
1.06141 -0.25699198 0.43701398
1.0676301 -0.265351 0.43667495
1.08208 -0.27280399 0.43983996
1.0846601 -0.28382999 0.43875995
1.08411 -0.296018 0.43821296
1.06572 -0.25654399 0.42962295
1.07051 -0.263879 0.43016297
1.07902 -0.27259099 0.43182099
1.07832 -0.28487501 0.42998296
1.06234 -0.257485 0.42027497
1.07108 -0.264507 0.42335796
1.0487 -0.26129201 0.40173396
1.0636901 -0.265957 0.40550494
1.05314 -0.25914899 0.39648795
1.09372 -0.267198 0.38909996
1.0934401 -0.264889 0.38255996
1.0935 -0.27586702 0.38147199
1.0939 -0.266431 0.37446597
1.09226 -0.26711801 0.36686996
1.08973 -0.27774701 0.36503497
1.08471 -0.258169 0.35843396
1.08988 -0.26753899 0.35905698
1.08093 -0.28413901 0.35316196
1.08901 -0.25601 0.35203895
1.0773001 -0.27548501 0.34699595
1.08577 -0.24388701 0.34462795
1.0815101 -0.25811601 0.34128198
1.08806 -0.26820099 0.34361094
1.08112 -0.25871199 0.33444896
1.08644 -0.26895201 0.33545396
1.08566 -0.28226501 0.33277094
1.0820099 -0.295717 0.33111495
1.06475 -0.31330499 0.32584199
1.0849299 -0.24495001 0.32840398
1.08357 -0.258755 0.32827497
1.09013 -0.26978999 0.32930997
1.08499 -0.283546 0.32593697
1.0836799 -0.24257201 0.32121795
1.0911 -0.253681 0.32223397
1.08839 -0.26894501 0.32186595
1.0850101 -0.281773 0.31958896
1.08706 -0.23111901 0.31581596
1.08991 -0.24361099 0.31574196
1.09351 -0.25347298 0.31592396
1.09577 -0.263188 0.31614196
1.09276 -0.24104001 0.30936596
1.09601 -0.25218499 0.31019497
1.10197 -0.259197 0.30926296
1.09553 -0.261172 0.29897198
1.09606 -0.261466 0.29092896
1.1025 -0.250379 0.23383994
1.10403 -0.264036 0.23294896
1.10698 -0.26037201 0.22716397
1.10286 -0.24767299 0.21857196
1.10903 -0.25625601 0.21932995
1.11035 -0.24677601 0.20578597
1.1151 -0.231885 0.19956799
1.11747 -0.242138 0.20096497
1.1117901 -0.23357099 0.19122498
1.11605 -0.24299102 0.19227497
1.1131301 -0.23293801 0.18420197
1.1090699 -0.247281 0.18142898
1.11164 -0.22125201 0.17665596
1.1132801 -0.232696 0.17635196
1.11084 -0.24573499 0.17409699
1.10806 -0.220632 0.16707195
1.10989 -0.23407601 0.16686298
1.10808 -0.222027 0.15921398
1.08863 -0.44702399 0.67802894
1.09238 -0.41788301 0.650769
1.07252 -0.42810798 0.63749397
1.10945 -0.39050597 0.63876396
1.0946801 -0.40883702 0.63601899
1.07654 -0.42574501 0.63349396
1.09122 -0.40879798 0.62934297
1.0857199 -0.42068803 0.629246
1.04492 -0.343932 0.60363197
1.08761 -0.39446998 0.60005498
1.02671 -0.285404 0.59130096
1.1013401 -0.35615399 0.59749395
1.09593 -0.37105599 0.596196
1.09316 -0.38354301 0.595186
1.07573 -0.39884499 0.59248096
1.03152 -0.28411201 0.58596498
1.09679 -0.35520598 0.59000295
1.1021199 -0.36551103 0.59094596
1.09303 -0.38033199 0.58869398
1.08499 -0.39366201 0.58753198
1.0297799 -0.28627598 0.58077896
1.08683 -0.345173 0.58181798
1.09381 -0.35496199 0.58218896
1.09569 -0.36757901 0.58336997
1.08495 -0.382173 0.58055997
1.07517 -0.32328603 0.57374793
1.09444 -0.34322301 0.57637596
1.0937001 -0.3556 0.57559294
1.09554 -0.36644101 0.57583797
1.04985 -0.30853701 0.56623298
1.07855 -0.32000402 0.56710696
1.08736 -0.32965901 0.56843597
1.0904499 -0.355463 0.56874496
1.05339 -0.30788401 0.55941099
1.07126 -0.31172299 0.56034195
1.08232 -0.32077703 0.56088597
1.0887101 -0.34375802 0.56153697
1.08613 -0.35637599 0.56133997
1.06089 -0.30524099 0.55304098
1.0761399 -0.31068 0.553482
1.09132 -0.31743401 0.55590498
1.08575 -0.33160901 0.55492699
1.07296 -0.299436 0.54646897
1.0823799 -0.30729699 0.54681897
1.08568 -0.31887901 0.54885501
1.0454299 -0.295463 0.53468198
1.07118 -0.29876602 0.53866899
1.08509 -0.31826401 0.54123694
1.0372 -0.28763598 0.52724594
1.05269 -0.29207799 0.52925497
1.0748401 -0.296343 0.532978
1.07867 -0.30767599 0.53323394
1.03631 -0.28676999 0.52025497
1.05416 -0.29022101 0.52301896
1.06875 -0.29715499 0.52540499
1.0781701 -0.30652201 0.52560097
1.03548 -0.28613299 0.51327497
1.05523 -0.28983298 0.51623797
1.07532 -0.29659501 0.51967794
1.08032 -0.30658799 0.51910394
1.03781 -0.28485599 0.50668997
1.07175 -0.29681998 0.51158094
1.05235 -0.27878401 0.50106794
1.06681 -0.28715798 0.50353396
1.07476 -0.29811701 0.50448799
1.0166401 -0.27342901 0.48882297
1.04774 -0.276649 0.49313995
1.0591999 -0.28591698 0.49501297
1.07489 -0.29439101 0.49759296
1.0589399 -0.27510101 0.48816997
1.07586 -0.28357202 0.49172294
1.03317 -0.26833799 0.47766295
1.06416 -0.27271199 0.48128697
1.07393 -0.28406501 0.48391396
1.08099 -0.29406101 0.48422995
1.02105 -0.26188299 0.46859398
1.04647 -0.26616502 0.47277898
1.06197 -0.272486 0.47395095
1.0686001 -0.28288099 0.475375
1.02034 -0.26294902 0.46053597
1.04776 -0.265259 0.46531096
1.06998 -0.272627 0.46907395
1.07909 -0.28264099 0.47104299
1.0278 -0.26118299 0.45513797
1.0490899 -0.26382199 0.45777699
1.05927 -0.27272999 0.45950899
1.08048 -0.281645 0.46338695
1.0932499 -0.29232001 0.46501797
1.03181 -0.26054898 0.44867995
1.0570201 -0.26315299 0.45203295
1.07268 -0.272295 0.45508796
1.08132 -0.28132099 0.45634198
1.0837899 -0.292245 0.45584095
1.09723 -0.30068898 0.45892197
1.0910701 -0.315815 0.456471
1.04036 -0.25814801 0.44319898
1.05668 -0.26205298 0.44460097
1.07092 -0.27039498 0.44699597
1.0802101 -0.28174901 0.44940698
1.08915 -0.29091102 0.45033595
1.08893 -0.302715 0.45013997
1.0410299 -0.25808501 0.43572998
1.0629799 -0.26173902 0.43856999
1.0724601 -0.27120501 0.44005397
1.07622 -0.28104901 0.44175994
1.0484101 -0.25685599 0.42936897
1.06107 -0.26176399 0.43147698
1.0729901 -0.26967898 0.43320096
1.07735 -0.28139901 0.43500096
1.05926 -0.26321101 0.42441598
1.07886 -0.26841801 0.42805898
1.07532 -0.28062001 0.41848797
1.07787 -0.281268 0.41246295
1.05592 -0.265385 0.40151995
1.09083 -0.26590598 0.39379397
1.0920401 -0.26385501 0.38661698
1.09451 -0.27493 0.38033399
1.09109 -0.26443002 0.37251797
1.08272 -0.25533101 0.36375496
1.08439 -0.267968 0.36266696
1.0846601 -0.28139001 0.36222297
1.0828 -0.245552 0.35724896
1.0825701 -0.25658301 0.35632595
1.08989 -0.265221 0.35744298
1.0854599 -0.27835101 0.354601
1.0843199 -0.253676 0.34972799
1.0824701 -0.266473 0.34847996
1.06973 -0.24863599 0.33845696
1.0858999 -0.25525701 0.34275997
1.0848401 -0.26784402 0.341555
1.09203 -0.27714899 0.34096396
1.08881 -0.28978699 0.34019998
1.0770401 -0.25461099 0.33247697
1.08909 -0.26518601 0.33511996
1.09878 -0.274562 0.33674797
1.09076 -0.288122 0.33301997
1.08656 -0.299438 0.33247697
1.08527 -0.254026 0.32717696
1.09341 -0.26351202 0.32924995
1.09542 -0.274643 0.32912198
1.09622 -0.286228 0.32712296
1.08692 -0.29869401 0.32402095
1.0896 -0.24165301 0.32248399
1.09861 -0.25019899 0.32448497
1.09791 -0.2753 0.32208797
1.08988 -0.28922999 0.31874597
1.08401 -0.299817 0.31648895
1.0885 -0.23999001 0.31473598
1.0939499 -0.25193599 0.31612995
1.0986199 -0.263677 0.31616196
1.0933499 -0.27753901 0.31418395
1.0845799 -0.23981 0.30580997
1.0945201 -0.25010699 0.30849895
1.09955 -0.26042101 0.30970898
1.0996701 -0.27078801 0.30824098
1.0992501 -0.26049 0.30144498
1.10052 -0.26984701 0.30112094
1.09303 -0.26264 0.29060796
1.10344 -0.260418 0.23460999
1.08487 -0.27835599 0.22538596
1.09996 -0.28211501 0.23071495
1.1037101 -0.247008 0.22944698
1.10508 -0.25872299 0.22724998
1.08436 -0.27721 0.21778595
1.09034 -0.285245 0.22017597
1.10552 -0.24663299 0.22147599
1.1018699 -0.26100501 0.21915497
1.0843199 -0.277073 0.20999695
1.10702 -0.25754401 0.21381798
1.07932 -0.27979001 0.19417095
1.1107 -0.233187 0.20041798
1.11654 -0.24275699 0.20358399
1.10594 -0.222985 0.19249696
1.11044 -0.23409401 0.19280499
1.10913 -0.24546301 0.19263798
1.10873 -0.254888 0.19127598
1.10244 -0.222508 0.18348698
1.10411 -0.23353399 0.18305194
1.1121299 -0.24304301 0.18643296
1.10885 -0.253856 0.18330295
1.09998 -0.21380199 0.17594898
1.1047599 -0.222804 0.17782295
1.1091501 -0.23181801 0.17767796
1.10667 -0.244396 0.17594098
1.10656 -0.22149099 0.17143597
1.10735 -0.233291 0.16955398
1.10769 -0.246337 0.16755195
1.10333 -0.221494 0.16185296
1.02944 -0.43708402 0.67221099
1.03264 -0.416841 0.64634997
1.03588 -0.361864 0.62758297
1.02267 -0.35480702 0.61053693
1.01773 -0.372765 0.59504801
1.01512 -0.36178002 0.59083694
1.01581 -0.35980597 0.58577698
1.0164499 -0.34428 0.58603197
1.01595 -0.36109698 0.58147192
1.02123 -0.343615 0.58087492
1.0176799 -0.35164902 0.57104701
1.0322499 -0.33022898 0.57179499
1.01679 -0.32353297 0.56165999
1.01993 -0.314776 0.556867
1.06847 -0.31150299 0.55589998
1.0166301 -0.31255302 0.55179298
1.04294 -0.30322501 0.55269098
1.05616 -0.30085301 0.55266899
1.03942 -0.295513 0.54888695
1.01955 -0.296482 0.54344594
1.00253 -0.31596002 0.53717893
1.0071399 -0.30878001 0.53798497
1.01609 -0.301945 0.53883499
1.0232199 -0.29587901 0.53901994
1.02492 -0.29018801 0.53818899
1.00231 -0.308103 0.53286296
1.0102 -0.30087999 0.53366393
1.01893 -0.29469901 0.53440499
1.017 -0.28785601 0.53329599
1.00368 -0.29986 0.528696
1.01196 -0.29300502 0.52920294
1.00718 -0.29864401 0.52373797
1.0166401 -0.29282701 0.52411598
1.01515 -0.28457299 0.52307796
1.01169 -0.29169801 0.51934296
1.01864 -0.284109 0.51814997
1.03458 -0.27985299 0.51814198
1.05945 -0.27861202 0.51702094
1.0093399 -0.28936899 0.51407295
1.01236 -0.28099701 0.51402694
1.0372699 -0.28032401 0.513919
1.05109 -0.27575999 0.51414895
1.0102401 -0.28124702 0.50980097
1.03192 -0.27895001 0.50935096
1.04186 -0.27335501 0.51031595
1.0189 -0.27598301 0.50514299
0.99553299 -0.27722299 0.49581996
1.0147799 -0.27313998 0.49553597
0.98644096 -0.28283399 0.49168298
0.99211699 -0.27588099 0.49120095
1.0148101 -0.27442199 0.49044394
0.99006796 -0.28183499 0.48660797
1.0116 -0.27114099 0.48662597
0.96963304 -0.285238 0.48218697
0.98323303 -0.28134701 0.48256898
0.99493498 -0.27577901 0.48177895
1.0131301 -0.27172199 0.48179096
0.99597394 -0.275673 0.47719598
1.00527 -0.26958299 0.47676599
1.01011 -0.271429 0.47115898
1.0107499 -0.26255399 0.47158995
0.99510002 -0.274387 0.46792299
1.00772 -0.26919299 0.46716994
1.01807 -0.255959 0.46701595
1.03899 -0.254706 0.46450096
1.0053099 -0.26840001 0.46246597
1.01705 -0.26181901 0.46172196
1.02716 -0.25681901 0.46145996
1.04099 -0.254574 0.45950097
0.997733 -0.268273 0.45780498
1.00849 -0.26115 0.45709696
1.0446399 -0.255384 0.45482394
1.00131 -0.267667 0.45255998
1.00808 -0.26040301 0.45172298
1.0197899 -0.255703 0.45194495
1.04247 -0.254989 0.45060498
0.99416602 -0.27321801 0.44838798
1.01335 -0.26108 0.44669598
1.0288401 -0.25164101 0.44658098
0.99661398 -0.27398002 0.44301295
1.0122399 -0.262005 0.44258896
1.0204101 -0.255575 0.44205296
1.02844 -0.25088701 0.44168597
1.00103 -0.27563101 0.43740794
1.01193 -0.27071199 0.43634596
1.0162899 -0.263033 0.43715495
1.0178701 -0.25475702 0.43660495
1.0233899 -0.249524 0.43752697
0.98036301 -0.283005 0.43465397
1.0106601 -0.26875901 0.43263996
1.01096 -0.26042601 0.43269694
1.01529 -0.25375998 0.43219295
1.0078 -0.26818198 0.42772996
1.0124401 -0.25966901 0.42779696
1.01969 -0.253966 0.42765397
1.00295 -0.26708499 0.42367196
1.06027 -0.25635499 0.40584698
1.05327 -0.26139501 0.40200797
1.0440899 -0.266909 0.398085
1.0529901 -0.26073 0.39715299
1.02921 -0.26419201 0.39517698
1.04258 -0.258661 0.39407897
1.03504 -0.25740299 0.39017296
1.05115 -0.253048 0.38886398
1.0229 -0.26286501 0.38626599
1.02499 -0.25532699 0.386639
1.0495601 -0.25225002 0.38387695
1.0190899 -0.26114401 0.38197196
1.03297 -0.25509399 0.38070798
1.04389 -0.25005901 0.38008699
1.01933 -0.261141 0.37614498
1.0224199 -0.25343299 0.37712795
1.0394 -0.25083899 0.37566099
1.01107 -0.258982 0.37280297
1.02178 -0.25352299 0.37173897
1.0312001 -0.249587 0.37185496
1.02046 -0.25187799 0.36709994
1.02891 -0.24856399 0.36711198
1.00556 -0.25768399 0.36426297
1.02797 -0.24812999 0.36223599
1.00823 -0.25621 0.35894498
1.00457 -0.257292 0.35476997
1.0219799 -0.24627899 0.35252598
1.02037 -0.245326 0.34775898
1.03263 -0.29143199 0.33571297
1.0700901 -0.31537202 0.32194397
1.0279 -0.28894502 0.33231795
1.08605 -0.24173099 0.32424298
1.02414 -0.27823001 0.31881398
1.01803 -0.25777799 0.32228297
1.0383 -0.23832399 0.31931797
1.0498101 -0.29200301 0.30064395
1.0601001 -0.29527301 0.29362199
1.03031 -0.270661 0.30235398
1.05347 -0.29260701 0.29071599
1.01684 -0.25733101 0.29116899
1.0229499 -0.241752 0.29084697
1.01722 -0.25777701 0.28622296
1.01845 -0.24830499 0.28624898
1.0267 -0.240694 0.28542596
1.0152 -0.25623199 0.28137299
1.03614 -0.23352399 0.26806995
1.0197101 -0.249043 0.265977
1.02843 -0.23384 0.26488894
1.0226899 -0.24895599 0.25962996
1.02405 -0.239944 0.26063296
1.03124 -0.233132 0.25884196
1.02347 -0.256246 0.25346398
1.01833 -0.24703801 0.25580797
1.0245099 -0.240064 0.25478297
1.05616 -0.215975 0.24870895
1.02324 -0.24847999 0.24981494
1.02417 -0.24078399 0.24913795
1.02455 -0.23158801 0.24983497
1.02188 -0.24818701 0.24495396
1.0279599 -0.223111 0.24060898
1.02751 -0.21480699 0.24053696
1.02334 -0.24784401 0.23300396
1.0247 -0.23851499 0.23353797
1.02257 -0.239632 0.22945797
1.0217199 -0.23100901 0.23048699
1.02012 -0.23903699 0.22570199
1.02091 -0.229009 0.22728798
1.0111001 -0.244991 0.22317798
1.03159 -0.42718801 0.65801299
1.03427 -0.42875198 0.65201598
1.0281199 -0.41690102 0.64721298
1.05198 -0.43766701 0.64299393
1.04659 -0.35170102 0.63292795
1.03719 -0.356727 0.62722796
1.0298101 -0.40543097 0.62090498
1.03607 -0.35555199 0.62118298
1.0266401 -0.40181702 0.61506397
1.03807 -0.34912997 0.61612296
1.01818 -0.36627102 0.60436797
1.02046 -0.355757 0.58423495
1.0171 -0.34460801 0.58410501
1.02143 -0.34646598 0.57942998
1.02469 -0.33706403 0.57895094
1.02122 -0.354341 0.57404894
1.0207499 -0.335145 0.56877196
1.03582 -0.29951599 0.54882097
1.0532399 -0.29711598 0.54812098
1.06828 -0.29637802 0.54784894
1.0417199 -0.29273999 0.54495597
1.06223 -0.29387599 0.54428297
1.01791 -0.30089399 0.53906798
1.0225 -0.29371101 0.53915495
1.03571 -0.28931701 0.54015195
1.06357 -0.29384899 0.539675
1.01213 -0.29795998 0.53426194
1.02622 -0.285887 0.53455997
1.0468 -0.286805 0.53519094
1.0145301 -0.29764 0.52883995
1.02053 -0.29159901 0.53009695
1.02013 -0.28261101 0.529544
1.03053 -0.27937499 0.52973396
1.0026699 -0.302481 0.52349496
1.00635 -0.294792 0.52412498
1.01475 -0.287909 0.52486694
1.02503 -0.28215501 0.52457094
1.01006 -0.28517902 0.51415098
1.01237 -0.27842101 0.51535994
1.01249 -0.27662599 0.51047397
1.00729 -0.27499801 0.50521994
0.988796 -0.28565902 0.49418795
0.99435204 -0.27753901 0.49553499
0.97991699 -0.28215301 0.49008697
0.98927003 -0.27681601 0.49008599
0.98703104 -0.284262 0.48524797
0.99837995 -0.271799 0.48532799
0.97941703 -0.289442 0.48064697
0.98387003 -0.281831 0.48111495
1.00111 -0.28065598 0.46914595
1.00274 -0.271761 0.46977797
1.0023201 -0.27997601 0.46488997
1.0028501 -0.27176902 0.46476197
1.0071499 -0.263906 0.46574295
0.99052805 -0.28386199 0.45966297
0.99984705 -0.27882001 0.46037197
1.0043 -0.270762 0.45983794
1.02466 -0.25371301 0.45873398
0.99915397 -0.27832702 0.45468497
1.00097 -0.26958099 0.45523697
1.0054001 -0.26198399 0.45587695
1.01293 -0.25530002 0.45521796
1.02582 -0.25254199 0.45337695
1.0020601 -0.279378 0.44939598
1.0005001 -0.26910999 0.45023099
1.01844 -0.25565299 0.44979396
1.02992 -0.25291401 0.44875395
1.04167 -0.25136998 0.44744796
0.99573195 -0.27686 0.44529897
1.0028601 -0.26974702 0.44414294
1.0056701 -0.26146799 0.44539097
1.0253501 -0.25086001 0.44456595
1.0451599 -0.251937 0.44281396
1.00368 -0.26907802 0.43935296
1.00815 -0.26304302 0.44034496
1.01578 -0.25615299 0.43994397
1.0217401 -0.24882099 0.43952495
1.00464 -0.27047101 0.43427098
1.0070701 -0.26175898 0.43581399
1.0088401 -0.253566 0.43540299
1.0139199 -0.24695401 0.43555996
1.0061799 -0.26991302 0.42892897
1.00588 -0.26035801 0.43067098
1.0021 -0.26883 0.42478195
1.00949 -0.26309001 0.42512095
1.04852 -0.258477 0.40464196
1.01546 -0.26184499 0.40355095
1.0431401 -0.263643 0.39988998
1.0281199 -0.25949898 0.39739498
1.04485 -0.25620499 0.39483997
1.0174099 -0.26515099 0.39285398
1.02308 -0.256697 0.39262596
1.04802 -0.256194 0.38895595
1.01474 -0.26228902 0.38806298
1.02467 -0.256145 0.38675395
1.03229 -0.25030199 0.38676697
1.00959 -0.26157799 0.38342297
1.01493 -0.25334498 0.38323498
1.0285 -0.24927099 0.38232696
1.0476 -0.24802999 0.38049197
1.0096 -0.25860202 0.37843394
1.01615 -0.25206801 0.37799397
1.02363 -0.24765301 0.37833595
1.0364499 -0.24417101 0.37715995
1.0843199 -0.24871701 0.37250897
1.00606 -0.25851199 0.37353799
1.0131199 -0.251266 0.37364396
1.0244 -0.246539 0.37305194
1.03678 -0.244114 0.37137496
1.00458 -0.25654498 0.36857498
1.0102401 -0.250231 0.36892697
1.0214 -0.245212 0.36802098
1.03681 -0.24344499 0.36596096
1.01902 -0.244359 0.36313495
1.03794 -0.243077 0.36053196
1.05961 -0.244918 0.35724598
1.01346 -0.242964 0.35893998
1.03703 -0.242504 0.355151
1.05204 -0.24144 0.35392997
0.99613196 -0.25365102 0.35540897
1.01922 -0.242239 0.35285699
1.03706 -0.241171 0.34990296
1.0485801 -0.23955201 0.34921098
1.02995 -0.239226 0.34668994
1.0401599 -0.236082 0.34514996
1.0313801 -0.29390401 0.33353195
1.02855 -0.238162 0.34132698
1.0447201 -0.236808 0.33885998
1.02229 -0.282215 0.32674798
1.0378 -0.23230101 0.32950798
1.02294 -0.280972 0.32166299
1.01736 -0.25225601 0.32560498
1.02027 -0.24262699 0.32685998
1.02999 -0.23573299 0.32550496
1.02663 -0.28041801 0.31564495
1.0147899 -0.25838101 0.32043797
1.01166 -0.24887601 0.32209897
1.01808 -0.24332599 0.32167396
1.0241799 -0.23536 0.32102695
1.0372599 -0.229718 0.31958199
1.01445 -0.25924802 0.31525996
1.01721 -0.25035501 0.31607497
1.0325 -0.22923499 0.31475395
1.0146099 -0.26614499 0.30830497
1.0181099 -0.25247201 0.31004196
1.03104 -0.22821301 0.31002697
1.01615 -0.25900102 0.30399197
1.0152301 -0.24833299 0.30566499
1.0182199 -0.24034099 0.30572796
1.01519 -0.25841498 0.29845098
1.01605 -0.24978201 0.30001396
1.01683 -0.241267 0.30136195
1.02112 -0.234051 0.30119094
1.03115 -0.227827 0.30047095
1.01486 -0.23987 0.29633698
1.0264 -0.234595 0.29506397
1.02176 -0.226174 0.29600498
1.01377 -0.25725999 0.28948197
1.01781 -0.24933 0.28879794
1.01121 -0.23761199 0.292045
1.02099 -0.233044 0.29080796
1.02363 -0.226742 0.28999195
1.01407 -0.25728399 0.28426397
1.0159301 -0.24877501 0.28342998
1.01456 -0.24772699 0.26875496
1.0174099 -0.238832 0.26968396
1.02526 -0.232061 0.26807797
1.02624 -0.224325 0.26790997
1.0176799 -0.24902201 0.26249799
1.01537 -0.239489 0.26491296
1.02153 -0.232694 0.26386297
1.01805 -0.249082 0.25693399
1.01648 -0.23900801 0.25953397
1.02387 -0.232106 0.25778699
1.0224299 -0.25116599 0.25043896
1.0179499 -0.238842 0.25311998
1.05459 -0.216785 0.24704999
1.01947 -0.248206 0.24615197
1.02161 -0.250018 0.23912296
1.02204 -0.24970101 0.23420498
1.01688 -0.238612 0.23764996
1.0189199 -0.24787901 0.23157597
1.01605 -0.233887 0.20369796
1.01977 -0.226163 0.20449799
1.02711 -0.212337 0.20438094
1.01851 -0.227448 0.19937897
1.0255001 -0.21976401 0.19922398
1.01844 -0.22631 0.19407295
1.01835 -0.218518 0.19612896
1.02851 -0.212376 0.19350296
1.02083 -0.218354 0.19010998
1.0261101 -0.210576 0.18818897
1.0352401 -0.205148 0.18746796
1.02545 -0.20944799 0.18304695
1.0304 -0.203363 0.18330295
1.01921 -0.208535 0.17982395
1.0262799 -0.20200001 0.17899197
1.0107399 -0.236543 0.17303696
1.0176101 -0.232713 0.17130299
1.01447 -0.20608699 0.17665797
1.0256801 -0.202518 0.17356396
1.0357599 -0.197409 0.17077297
1.01495 -0.23123199 0.16723897
1.01561 -0.214927 0.16947296
1.0218199 -0.208336 0.16931397
1.0267199 -0.20061399 0.16764797
1.03627 -0.19566999 0.16527195
1.0093399 -0.22114 0.16416398
1.0184799 -0.20698 0.16489197
1.03376 -0.195461 0.16135795
1.04293 -0.19237499 0.15930496
1.0078 -0.22527 0.15858597
1.01328 -0.221366 0.15729095
1.0329499 -0.19592699 0.15581898
0.995013 -0.21313299 0.16015796
1.02703 -0.193795 0.15208198
1.0223 -0.43568802 0.678936
1.02456 -0.43477198 0.67353094
1.02028 -0.42176497 0.67364395
1.0228701 -0.42180902 0.66805696
1.01949 -0.41662201 0.66173095
1.02273 -0.40377101 0.63856894
1.02371 -0.404706 0.63238394
1.0261199 -0.40595299 0.627177
1.01604 -0.37715697 0.62731498
1.02472 -0.40408799 0.62161797
1.01528 -0.367048 0.61677694
1.01358 -0.36313599 0.61148697
1.01499 -0.354691 0.60508096
1.02109 -0.34931901 0.60555398
1.01722 -0.379269 0.59868795
1.0156701 -0.35354 0.60026693
1.0116401 -0.36046001 0.58908296
1.0152401 -0.38612801 0.58175093
1.024 -0.33488601 0.58442998
1.01776 -0.32090598 0.57310396
1.01114 -0.33797401 0.56768298
1.02724 -0.31425899 0.56762898
1.00955 -0.32487801 0.56217599
1.01405 -0.316163 0.56236595
1.02653 -0.31202498 0.56297594
1.01753 -0.30610999 0.55782497
1.03725 -0.306932 0.55815095
1.04566 -0.30179599 0.55359399
1.06136 -0.30288202 0.552764
1.00826 -0.300798 0.546808
1.0446601 -0.30040002 0.54877198
1.06261 -0.303054 0.54814398
1.00315 -0.30790299 0.54159397
1.00965 -0.30035698 0.541044
1.01595 -0.29377401 0.54249692
1.03985 -0.29809499 0.543706
1.0042 -0.30651501 0.53662294
1.01329 -0.29209298 0.53705698
1.00207 -0.30559999 0.53131998
1.0116401 -0.29081699 0.53164297
1.0248101 -0.29040301 0.53253996
1.00124 -0.296489 0.52623594
1.01586 -0.28045699 0.52106595
1.02583 -0.27906799 0.52145195
0.99904096 -0.281409 0.51564395
0.985596 -0.314904 0.48787698
0.990246 -0.27280799 0.46427497
0.99039197 -0.27444598 0.45867595
0.99608201 -0.26543501 0.45988795
1.0231199 -0.25262299 0.45874396
0.99593103 -0.26681501 0.45379996
1.00292 -0.25858802 0.45503294
1.00607 -0.250554 0.45508897
1.02363 -0.25172299 0.45327395
0.99225402 -0.27408701 0.44855994
0.99663699 -0.26626801 0.44810694
1.02738 -0.25165999 0.44731697
1.0307599 -0.246812 0.44815499
0.99238294 -0.272865 0.44386899
0.99249297 -0.26404899 0.44365397
1.02562 -0.249448 0.44266596
1.03378 -0.247243 0.44306296
0.987517 -0.27013901 0.43958798
0.99661499 -0.264974 0.43820298
1.02154 -0.248509 0.43857998
1.0274501 -0.24394101 0.43819097
1.00089 -0.26852101 0.43225297
1.0176799 -0.246696 0.43361497
1.0321701 -0.246038 0.43142295
0.99999297 -0.267088 0.42744094
1.00264 -0.258288 0.42749694
1.0407901 -0.25000098 0.42465895
0.99971098 -0.26569 0.42194498
0.99654406 -0.264438 0.41751698
1.01188 -0.260618 0.40537098
1.05072 -0.26035401 0.40105298
1.01334 -0.26183099 0.40002197
1.01762 -0.25515199 0.40027595
1.0365599 -0.25486299 0.39822999
1.05489 -0.253878 0.39642897
1.0111699 -0.25969499 0.39539397
1.02055 -0.25446799 0.39509696
1.0392801 -0.25357801 0.39241096
1.00454 -0.25787902 0.39036396
1.02069 -0.25478101 0.38902497
1.03473 -0.25101 0.38746297
1.08623 -0.25594199 0.38291195
1.00818 -0.257741 0.38514897
1.0169799 -0.25327802 0.38390696
1.02534 -0.24783 0.38349599
1.03773 -0.245445 0.38347799
1.08603 -0.25606 0.37936398
1.0084 -0.257494 0.37967795
1.0191001 -0.25271201 0.37906498
1.02073 -0.24482401 0.37862796
1.03458 -0.24478799 0.37823597
1.0031099 -0.255597 0.37429896
1.01477 -0.250833 0.37475395
1.02142 -0.245168 0.37342894
1.0274199 -0.240661 0.37338397
1.01293 -0.24884701 0.36936197
1.02391 -0.244947 0.36851498
1.03965 -0.24599101 0.36550698
1.00058 -0.254821 0.36420697
1.0055799 -0.24597201 0.36439696
1.02361 -0.24470399 0.36309499
1.03958 -0.24556999 0.36063594
0.99891996 -0.25148299 0.35928294
1.01396 -0.240398 0.35876796
1.0357499 -0.243782 0.35657597
1.01545 -0.24018401 0.35295096
1.02721 -0.2393 0.35255095
1.0269899 -0.238704 0.34646496
1.0272499 -0.236306 0.34011796
1.0282 -0.23537701 0.33462796
1.02632 -0.23379101 0.33059499
1.01021 -0.255833 0.32437596
1.0161799 -0.24839801 0.32528996
1.0240101 -0.241898 0.324251
1.03162 -0.235603 0.32445198
1.00734 -0.26129201 0.31873596
1.01489 -0.24833401 0.31982794
1.01719 -0.24005699 0.32114896
1.02424 -0.23377301 0.32025397
1.03705 -0.22872801 0.31836197
1.00945 -0.26246598 0.31232697
1.01152 -0.256165 0.31350097
1.01617 -0.23855801 0.31627598
1.0260199 -0.23250401 0.31426895
1.03471 -0.22711501 0.31361797
1.01156 -0.26332501 0.30624595
1.01132 -0.25668299 0.30841199
1.01632 -0.25022101 0.30839798
1.01774 -0.228223 0.31123996
1.03267 -0.22635201 0.30904597
1.01186 -0.263805 0.30033496
1.0116301 -0.25522101 0.30311996
1.01238 -0.24532899 0.30463296
1.01205 -0.26633102 0.294186
1.01203 -0.25657699 0.29646796
1.01331 -0.24637599 0.29893795
1.0207 -0.24013399 0.29703999
1.02786 -0.233081 0.29835197
1.00783 -0.26397401 0.29028398
1.00632 -0.253272 0.29284698
1.0128601 -0.24700399 0.29293397
1.01597 -0.23828699 0.29277498
1.0070601 -0.25369 0.28745097
1.0107599 -0.24458499 0.28788897
1.01613 -0.23675899 0.28801596
1.00763 -0.25184098 0.28166196
1.01191 -0.243622 0.28286994
1.0095201 -0.24267599 0.27818498
1.01326 -0.244012 0.27128196
1.0194 -0.23618601 0.27084297
1.01472 -0.245703 0.26476297
1.01705 -0.23714899 0.26613894
1.0261101 -0.23163201 0.26456496
1.02163 -0.25704202 0.25573295
1.02061 -0.249026 0.25734195
1.0177701 -0.236784 0.25983196
1.01653 -0.25295901 0.25198096
1.01553 -0.24445999 0.25393897
1.02065 -0.25481901 0.24571198
1.01598 -0.244783 0.24849598
1.01917 -0.25326002 0.24232297
1.0216 -0.23393299 0.21220097
1.02105 -0.23469201 0.20801896
1.01885 -0.22397499 0.21101296
1.029 -0.208948 0.21034297
1.0243499 -0.22722401 0.20362495
1.02704 -0.21839198 0.20323697
1.02705 -0.208248 0.20543697
1.0181301 -0.230571 0.19941898
1.02394 -0.22488301 0.19757396
1.0252 -0.214955 0.19911896
1.02608 -0.20662099 0.20029598
1.03377 -0.203593 0.20003197
1.0209 -0.223795 0.19256096
1.02694 -0.217281 0.19238396
1.0324501 -0.203255 0.19409195
1.02116 -0.21242 0.18904796
1.02663 -0.20725599 0.18978298
1.02746 -0.19955601 0.18954697
1.02412 -0.204491 0.18462998
1.03521 -0.20141001 0.18102096
1.01502 -0.22724099 0.17672096
1.02456 -0.20603999 0.17875095
1.0295 -0.198612 0.17784698
1.0122499 -0.20924601 0.17466897
1.0226899 -0.20425199 0.17339797
1.0298001 -0.197642 0.17166299
1.04353 -0.197559 0.16907898
1.01616 -0.218123 0.16676196
1.01483 -0.20800699 0.16898598
1.0241899 -0.194126 0.16869496
1.0392801 -0.194805 0.16449898
1.01387 -0.20929301 0.16391698
1.0262001 -0.19561701 0.16220097
1.03792 -0.193729 0.15927197
1.0268101 -0.19601299 0.15552498
1.03537 -0.192304 0.15420696
1.03136 -0.18983001 0.15006596
1.02803 -0.434852 0.67759597
1.02889 -0.402123 0.62207896
1.01673 -0.36809599 0.59220195
1.0212899 -0.38409901 0.58672398
1.01833 -0.369248 0.58647799
1.0200801 -0.35708401 0.58770895
1.02957 -0.33866403 0.58853495
1.01889 -0.36632901 0.58146799
1.0157499 -0.350743 0.58173496
1.0174199 -0.33974603 0.58161396
1.01779 -0.354792 0.57657295
1.01888 -0.34293702 0.57645297
1.00673 -0.305215 0.54770494
1.01615 -0.30002201 0.54911995
1.00151 -0.311593 0.53714198
1.00323 -0.301007 0.53720498
1.03803 -0.29235101 0.53823996
1.0448201 -0.287772 0.53780997
0.99960899 -0.30902299 0.53198999
1.00218 -0.300946 0.53175497
0.99698502 -0.306934 0.52651495
1.0009999 -0.27291799 0.51711899
0.97699499 -0.30205402 0.486671
0.98049897 -0.28152701 0.48874897
0.97767997 -0.29069299 0.48287597
0.98027396 -0.293185 0.47678998
1.01849 -0.26325199 0.47192496
0.99660003 -0.281362 0.46585697
1.00019 -0.27078101 0.46684796
1.00929 -0.26456898 0.46623898
1.01796 -0.26202899 0.46668395
0.99082202 -0.28704301 0.46041298
0.99705005 -0.27892798 0.46101996
1.00088 -0.269339 0.46051297
1.00581 -0.260869 0.46087098
1.01834 -0.26135099 0.46142596
0.99240094 -0.27634501 0.45551297
0.99956203 -0.269449 0.45478097
1.00498 -0.26125202 0.45523998
1.01736 -0.259718 0.45534995
0.99272501 -0.274196 0.44965595
1.00043 -0.26764601 0.44983098
1.01367 -0.256405 0.44988099
1.03475 -0.262095 0.44883895
0.98930395 -0.27446601 0.44447598
0.99911398 -0.269407 0.44429195
1.0047001 -0.260405 0.44500798
1.01267 -0.25448 0.44409996
1.02873 -0.25714299 0.44417495
0.99832398 -0.26623499 0.43887496
1.00939 -0.26172701 0.43920395
1.01794 -0.249415 0.43916699
1.0018001 -0.268859 0.43219796
1.0207599 -0.25027701 0.43280795
1.00227 -0.26875001 0.42712897
1.00554 -0.25918099 0.42811596
1.01494 -0.25393298 0.42824399
1.0051999 -0.25876102 0.42257497
0.99770105 -0.26552001 0.41721299
1.01056 -0.26178199 0.39866498
1.02372 -0.25878298 0.39813697
1.0329 -0.25446698 0.39804399
1.09436 -0.26676399 0.38957298
1.01041 -0.26078698 0.39289597
1.0155799 -0.254244 0.39356998
1.02871 -0.25126499 0.39293995
1.00702 -0.25630799 0.38844997
1.02185 -0.25461099 0.38734898
1.03592 -0.25179899 0.38666797
1.08951 -0.25250602 0.38242996
1.00852 -0.25966299 0.38230094
1.01315 -0.25171301 0.38278198
1.02853 -0.249253 0.38140199
1.0914 -0.26544002 0.37627494
1.00871 -0.25891301 0.37659997
1.0143399 -0.25036401 0.37690696
1.02859 -0.24888201 0.37509197
1.04591 -0.251634 0.37458396
1.00582 -0.255063 0.37120298
1.01998 -0.25161502 0.37060297
1.02694 -0.246777 0.37053296
1.0360501 -0.24468799 0.36988896
1.01582 -0.25046599 0.36547595
1.0256801 -0.24492201 0.36553195
1.04071 -0.24508199 0.36304694
0.99724996 -0.25975701 0.36037296
1.0082901 -0.24660401 0.36146995
1.01817 -0.24149999 0.36050895
1.03746 -0.24254 0.35842496
1.05274 -0.24411301 0.35640699
1.00131 -0.27590999 0.35260898
1.00806 -0.24611799 0.35579795
1.0189 -0.24154399 0.35432896
1.0315 -0.23893699 0.35373697
1.04469 -0.23818199 0.35248998
0.99976194 -0.273193 0.34765297
1.02258 -0.240758 0.34878296
1.0369899 -0.239264 0.34736198
1.0544 -0.242311 0.34496295
1.0185601 -0.24018 0.34413695
1.03304 -0.237957 0.34194496
1.05119 -0.23879999 0.33978596
1.0314701 -0.237056 0.33636796
1.0327801 -0.235512 0.33056298
1.01397 -0.259895 0.32491097
1.01632 -0.249735 0.32503697
1.0271801 -0.23206 0.32639799
1.0421 -0.23084199 0.32418597
1.0245401 -0.276939 0.31415597
1.01298 -0.25868601 0.31970498
1.01588 -0.24997999 0.31928897
1.0227799 -0.242955 0.31952396
1.03047 -0.234373 0.31991798
1.03616 -0.22690301 0.32023698
1.01677 -0.26063901 0.313043
1.0254799 -0.230748 0.31544697
1.0391201 -0.228856 0.31418297
1.06498 -0.221257 0.31073898
1.0163701 -0.25903201 0.30645797
1.01735 -0.24643299 0.30838096
1.03649 -0.225705 0.30901298
1.01627 -0.258526 0.30007297
1.01794 -0.248312 0.30225295
1.0138301 -0.257963 0.29465896
1.0174299 -0.24894501 0.29669598
1.02189 -0.23898099 0.29734695
1.0309401 -0.225124 0.29803696
1.00726 -0.25145501 0.29096496
1.01626 -0.246292 0.29143399
1.02631 -0.230938 0.29192498
1.0278701 -0.22337799 0.29288697
1.01081 -0.25471902 0.28443897
1.01012 -0.243146 0.28736797
1.03337 -0.291888 0.25779396
1.02153 -0.249897 0.26673594
1.03111 -0.232421 0.26725098
1.05788 -0.29972899 0.24798095
1.02135 -0.24805099 0.26095498
1.02345 -0.236164 0.26233998
1.02512 -0.22646299 0.26345295
1.01941 -0.247464 0.25530696
1.02587 -0.22856899 0.25776997
1.0237499 -0.25705498 0.24848995
1.0154001 -0.24134301 0.25152299
1.0133899 -0.24025801 0.21901898
1.02265 -0.234842 0.21376495
1.02315 -0.223482 0.21505997
1.02079 -0.22296301 0.21174297
1.0290899 -0.217768 0.20981297
1.023 -0.231583 0.19796997
1.02144 -0.22040701 0.19947098
1.0257 -0.212392 0.20062698
1.03899 -0.201647 0.19876996
1.02544 -0.212889 0.19424996
1.03948 -0.19988501 0.19392498
1.0218101 -0.2199 0.18843395
1.02819 -0.21361299 0.18697895
1.0304101 -0.20455499 0.18970399
1.03977 -0.19971001 0.18816197
1.03662 -0.20624599 0.18152995
1.0424 -0.199212 0.18109798
1.0347 -0.20521601 0.17570598
1.0234799 -0.22088499 0.16927499
1.01999 -0.208046 0.17342098
1.03134 -0.203788 0.17055996
1.02457 -0.22128201 0.16293098
1.02184 -0.20854799 0.16707797
1.0283799 -0.20103501 0.16522396
1.03775 -0.195639 0.16473298
1.03135 -0.202555 0.15870495
1.03643 -0.194969 0.15877396
1.03547 -0.193774 0.15369496
1.02378 -0.43392503 0.67806196
1.0100701 -0.41073298 0.67694902
1.0109 -0.40788502 0.67068791
1.0141799 -0.408979 0.66353095
1.0122 -0.40660501 0.65735102
1.01323 -0.40562803 0.64441192
1.02018 -0.41221297 0.63793898
1.0273401 -0.34814999 0.63352495
1.01947 -0.398893 0.626064
1.01817 -0.39552101 0.61975694
1.02975 -0.34866297 0.62110996
1.03669 -0.34158599 0.60887796
1.0189099 -0.378162 0.60022193
1.0141001 -0.36331099 0.60160601
1.01442 -0.34621701 0.59565794
1.0198799 -0.33704603 0.59454095
1.02084 -0.37984502 0.58737898
1.0163 -0.34833199 0.58966398
1.01604 -0.36381501 0.58272195
1.01762 -0.36433202 0.57716393
1.01445 -0.31754699 0.57691795
1.0098799 -0.32660499 0.57085496
1.03348 -0.30886599 0.56721497
1.02776 -0.36525199 0.55152899
1.0163701 -0.29148999 0.55386299
0.999843 -0.313135 0.54134297
1.00919 -0.295809 0.54189199
0.99720198 -0.30937999 0.53530794
1.00175 -0.30254298 0.535954
0.98579401 -0.26958099 0.47215295
0.99136704 -0.275572 0.46502894
1.03255 -0.259397 0.46515995
0.993976 -0.275406 0.45891199
1.03115 -0.25735798 0.46048096
0.99825597 -0.265315 0.45462498
1.0072 -0.24818 0.45509797
1.02762 -0.25444999 0.45506194
0.99819297 -0.26594499 0.44835895
1.00096 -0.254316 0.44991997
1.00718 -0.24710698 0.44875094
0.99879402 -0.26695901 0.44247696
1.00546 -0.24500901 0.44385198
1.0163 -0.24422599 0.44335297
0.99737602 -0.26344901 0.43679798
1.00141 -0.252516 0.43714997
1.02175 -0.246631 0.43588498
1.05044 -0.25861499 0.42721194
0.99791497 -0.26424101 0.42539498
1.04895 -0.257139 0.42248398
1.00131 -0.26572502 0.41873398
1.0110099 -0.26135999 0.40626094
1.0393801 -0.256675 0.40400898
1.0108 -0.25941601 0.40024197
1.02354 -0.25482699 0.39971197
1.03862 -0.253914 0.39837196
1.0531501 -0.254861 0.39795697
1.0114499 -0.25831801 0.39387798
1.01542 -0.250368 0.39550495
1.03166 -0.250606 0.39379796
1.05163 -0.25225699 0.39236698
1.01222 -0.26045001 0.38744795
1.01542 -0.249138 0.38986397
1.03521 -0.25070298 0.38735595
1.08503 -0.26295 0.38310796
1.0099701 -0.25825 0.38105395
1.02017 -0.25153899 0.38253698
1.03057 -0.247315 0.38236797
1.0045099 -0.25434899 0.37615997
1.0163 -0.24984501 0.37600297
1.02716 -0.24527501 0.37709197
1.00363 -0.251542 0.37105197
1.0149601 -0.247289 0.36991096
1.02334 -0.24226201 0.37089998
1.03538 -0.242349 0.37037599
1.01245 -0.24466801 0.36521396
1.02047 -0.239976 0.36501494
1.02924 -0.23727399 0.36570495
1.0090699 -0.241887 0.36009797
1.0158 -0.235126 0.36039197
1.02797 -0.23549299 0.35938299
1.01587 -0.24657801 0.35286495
1.02152 -0.23902799 0.35344297
1.0326101 -0.238162 0.35267198
1.01905 -0.235973 0.34771997
1.03309 -0.23810101 0.34687096
1.01898 -0.23728201 0.34219697
1.0268101 -0.23287399 0.34152594
1.0305001 -0.231686 0.33442998
1.02485 -0.23859301 0.32798299
1.0321 -0.231784 0.32868898
1.01826 -0.27427998 0.31772995
1.01317 -0.256899 0.32132897
1.0149 -0.24529 0.32277095
1.02415 -0.24076401 0.32220498
1.03177 -0.232281 0.32228297
1.03956 -0.22531 0.32360297
1.03894 -0.301202 0.30406898
1.02144 -0.27575198 0.31135696
1.00998 -0.25398099 0.31606895
1.01779 -0.247796 0.31624797
1.0275199 -0.227226 0.31700096
1.04039 -0.22483999 0.31754097
1.0123 -0.256336 0.30938494
1.01595 -0.24359101 0.31010899
1.02306 -0.223151 0.31301498
1.00835 -0.25047299 0.30369198
1.01818 -0.24555999 0.30359799
1.02267 -0.236632 0.30446798
1.0275199 -0.22698601 0.30672696
1.00754 -0.250173 0.29719499
1.01279 -0.24069001 0.29930195
1.0154799 -0.23029499 0.30061096
1.02855 -0.228196 0.29949799
1.0081099 -0.26199499 0.28981099
1.0125 -0.24226999 0.29273099
1.01682 -0.23097201 0.29419696
1.00799 -0.26433 0.28284699
1.0093399 -0.250485 0.28600797
1.0117199 -0.237866 0.28761998
1.01429 -0.22887699 0.28889096
1.0203 -0.223674 0.28865796
1.0090699 -0.251807 0.27971798
1.01262 -0.240205 0.26890197
1.01919 -0.23234801 0.26847094
1.0261 -0.22384399 0.26915997
1.01791 -0.252428 0.25945497
1.0159401 -0.24101201 0.26174396
1.0131099 -0.22707501 0.26450998
1.0231199 -0.22318199 0.26356697
1.01421 -0.24715 0.25555897
1.01624 -0.23700199 0.21556495
1.01519 -0.227189 0.21303597
1.01775 -0.22347799 0.20189697
1.0184 -0.21541001 0.20361497
1.01774 -0.22119699 0.19522198
1.01963 -0.213523 0.19733997
1.0168 -0.22094201 0.18892097
1.02082 -0.214019 0.19048096
1.0205101 -0.19312701 0.19604497
1.02119 -0.20292 0.18637696
1.02447 -0.19447701 0.18795796
1.016 -0.209288 0.18059498
1.0230401 -0.202884 0.17925996
1.02643 -0.19495501 0.18130097
1.03953 -0.19516701 0.17775398
1.02194 -0.234835 0.16648796
1.0145401 -0.20831199 0.17519897
1.02231 -0.202729 0.17343499
1.0295501 -0.19554701 0.17375396
1.01352 -0.219319 0.16574097
1.01579 -0.209141 0.16847698
1.0294499 -0.193635 0.16755798
1.01746 -0.22308901 0.15802395
1.02832 -0.19365601 0.16237095
1.04041 -0.19171301 0.15923496
1.03236 -0.195676 0.15504295
1.03764 -0.35747799 0.65589094
1.03448 -0.355694 0.64963293
1.04478 -0.34892601 0.63401997
1.05457 -0.344809 0.626019
1.0532399 -0.35689998 0.66157997
1.04654 -0.35167599 0.650653
1.04195 -0.3484 0.64589798
1.03781 -0.34419602 0.64161795
1.05836 -0.34719503 0.62501699
1.0550801 -0.33599201 0.61418998
1.03698 -0.34821999 0.61425394
1.02257 -0.34945801 0.65960997
1.0510501 -0.34560099 0.63710296
1.04972 -0.34307 0.63004595
1.0458699 -0.33848998 0.62508601
1.05225 -0.33048999 0.60603601
1.0423501 -0.291491 0.54049498
1.0364701 -0.285662 0.53874695
1.0348001 -0.28115401 0.53172094
1.0084 -0.28048301 0.51124793
1.0155101 -0.27283201 0.49889797
1.0232 -0.27742499 0.47934297
1.0149701 -0.26047099 0.476046
1.0211101 -0.25658301 0.47189796
1.02452 -0.274932 0.45060596
1.02183 -0.25542501 0.46050298
1.0146199 -0.25735599 0.45780998
1.0233999 -0.25499001 0.45000297
1.03888 -0.25847301 0.43591797
1.01806 -0.25762698 0.44491798
1.0281199 -0.25672701 0.43665096
1.0265 -0.26229602 0.42785197
1.11417 -0.412359 0.67241293
1.02852 -0.430237 0.66666901
1.02228 -0.41855597 0.65620595
1.02092 -0.40581799 0.64173293
1.02332 -0.35202301 0.60861498
1.01849 -0.35391101 0.60476899
1.0157599 -0.36997002 0.597045
1.0193499 -0.35440102 0.58709395
1.01995 -0.36303797 0.58245093
1.0244 -0.42099097 0.65974498
1.01897 -0.41591799 0.66060901
1.02247 -0.412303 0.64861494
1.01631 -0.40736699 0.64987594
1.01333 -0.39846697 0.64567697
1.01513 -0.40485099 0.63972396
1.0125099 -0.39697701 0.63634396
1.01669 -0.37824002 0.59849
1.01433 -0.36698002 0.58469599
1.00726 -0.30040199 0.52167594
0.984366 -0.32654801 0.489162
1.02028 -0.41611302 0.68152893
1.01529 -0.39496201 0.66810495
0.99989098 -0.38774699 0.67342192
1.01705 -0.423572 0.66723096
1.0177 -0.41491002 0.65553695
1.01333 -0.40747502 0.656941
1.0084 -0.39039001 0.65100592
1.02388 -0.41018501 0.64193201
1.01483 -0.406158 0.64637494
1.0143 -0.39636698 0.64046496
1.01758 -0.40305302 0.63563299
1.01056 -0.395803 0.63467199
1.07165 -0.42276999 0.65584898
1.04399 -0.34138402 0.61065698
1.06064 -0.42100498 0.637344
1.06522 -0.41419601 0.63104796
1.05848 -0.40329301 0.61661297
1.0546 -0.41201001 0.61577797
1.04706 -0.30351901 0.53551501
1.05371 -0.31349099 0.54236597
1.07514 -0.30758101 0.45633796
1.02662 -0.228237 0.36183599
1.02264 -0.238879 0.36321494
1.03478 -0.2554 0.37843999
1.04544 -0.22180299 0.36508197
1.0366 -0.22934099 0.36086896
1.02933 -0.240788 0.36108997
1.0441899 -0.26129901 0.37960395
1.0513201 -0.223992 0.36136496
1.03319 -0.229012 0.34769899
1.0212799 -0.226974 0.32391599
1.0366 -0.23248699 0.32960197
1.0311199 -0.238929 0.32686996
1.03513 -0.24004999 0.32200995
1.0748301 -0.285373 0.34126699
1.01533 -0.42583099 0.68179792
1.013 -0.42800999 0.67586899
1.0104699 -0.41781399 0.67584002
1.00639 -0.40878299 0.67565596
1.0142701 -0.427122 0.66985995
1.01177 -0.41413799 0.669379
1.02414 -0.43078399 0.66364998
1.01466 -0.423004 0.66332698
1.01494 -0.40815103 0.66289991
1.01002 -0.398893 0.66201895
1.01598 -0.43739399 0.65876001
1.0170701 -0.42311099 0.65766996
1.00921 -0.414608 0.65680796
1.01176 -0.412334 0.65050095
1.0097799 -0.40123901 0.65027297
1.01089 -0.385699 0.65012395
1.00957 -0.412334 0.64422297
1.00833 -0.40358102 0.64399695
1.00448 -0.39314201 0.64355993
1.01046 -0.410826 0.63823998
1.0107399 -0.39940399 0.63742095
1.0058399 -0.388513 0.63665301
1.01739 -0.40625399 0.63058197
1.0098001 -0.39844897 0.63085598
1.00485 -0.38999298 0.63073999
1.0028701 -0.37896198 0.63039899
1.016 -0.41055697 0.62450701
1.0058399 -0.389588 0.62429994
1.01183 -0.39991701 0.61816496
1.00123 -0.37896198 0.61760795
1.00043 -0.38249198 0.61132795
1.00762 -0.38949099 0.605551
1.00181 -0.37837601 0.60489494
1.0015399 -0.379906 0.59291101
1.00251 -0.37865397 0.58691895
1.02306 -0.43136701 0.68128294
1.02396 -0.42932701 0.67589897
1.01785 -0.41986302 0.67501497
1.0104799 -0.41174901 0.67453402
1.03146 -0.435406 0.67045897
1.02382 -0.42807499 0.67021596
1.01082 -0.41370401 0.66951501
1.01858 -0.381569 0.66937697
1.01526 -0.41022301 0.66335297
1.00817 -0.40108001 0.66258192
1.00822 -0.403548 0.65729296
1.01801 -0.42021301 0.65225101
1.01464 -0.41030899 0.65168196
1.00725 -0.401795 0.65182799
1.00349 -0.39313999 0.650868
1.00231 -0.382557 0.65107501
1.02196 -0.416091 0.64693397
1.0146199 -0.40992901 0.64480299
1.0084701 -0.40087602 0.64573801
1.0055001 -0.38981202 0.64579892
1.00298 -0.38016498 0.64508992
1.02098 -0.41444901 0.63960999
1.0091799 -0.41362998 0.63936996
1.01015 -0.40231299 0.63948196
1.00447 -0.39126998 0.63930094
1.00485 -0.37740898 0.639009
1.02651 -0.41071302 0.63312095
1.0123301 -0.41079497 0.63407797
1.0098701 -0.40033799 0.63402897
1.00231 -0.39430198 0.63267899
1.0013 -0.38207099 0.63253194
0.99821097 -0.37361598 0.63346201
1.0142 -0.410947 0.62827396
1.0094399 -0.40209401 0.62792295
1.0054901 -0.39038101 0.62662798
0.99433196 -0.38614899 0.62675297
0.99665397 -0.373429 0.62623096
1.0107599 -0.399353 0.62099594
1.00475 -0.39113998 0.62098497
0.99633902 -0.384563 0.62088799
0.99942803 -0.36859798 0.61985093
1.00598 -0.40313703 0.61558199
1.00252 -0.39341399 0.61530095
0.996737 -0.38492098 0.61519796
0.99610496 -0.37349701 0.61467296
1.0002301 -0.35571998 0.61368698
1.0061001 -0.39214697 0.60899997
1.00012 -0.38299599 0.60939199
0.99556804 -0.37149701 0.60820496
0.99934304 -0.355131 0.60769594
1.00051 -0.341997 0.607844
1.00481 -0.39083803 0.60381198
0.99929398 -0.38199002 0.60309297
0.99821097 -0.369966 0.60180694
0.98897499 -0.364712 0.60303396
0.99224299 -0.35000899 0.60229796
1.0015 -0.32948798 0.60146296
0.99751502 -0.36998403 0.59577894
0.99131697 -0.36207801 0.59727496
1.00506 -0.32246 0.59514695
0.99711305 -0.35632402 0.59052497
0.99725801 -0.330964 0.58889097
0.99499601 -0.35926202 0.58432198
0.99501902 -0.34510398 0.58427596
0.98771894 -0.33826301 0.58352697
0.99029702 -0.33588001 0.57731992
1.01678 -0.290627 0.57664096
0.98913497 -0.32352102 0.57073492
0.99451303 -0.30794099 0.56371295
0.99687201 -0.33118498 0.54567099
0.97243696 -0.28292298 0.47635695
0.98084396 -0.268727 0.35248798
0.97933197 -0.271395 0.346928
0.98106402 -0.281104 0.34205598
0.98035002 -0.27050102 0.33927998
0.97847199 -0.27138299 0.33383995
0.98007894 -0.270785 0.32757297
1.09997 -0.262366 0.29240999
0.977171 -0.27340201 0.31481895
1.01673 -0.28193501 0.21558098
1.01046 -0.28506902 0.20979698
1.01219 -0.27237099 0.19995998
0.99017698 -0.26637 0.20535095
