# .PCD v0.7 - Point Cloud Data file format
VERSION 0.7
FIELDS x y z
SIZE 4 4 4
TYPE F F F
COUNT 1 1 1
WIDTH 1618
HEIGHT 1
VIEWPOINT 0 0 0 1 0 0 0
POINTS 1618
DATA ascii
1.08884 -0.59520602 1.027095
1.07623 -0.58055502 1.03713
1.0743901 -0.56898499 1.041656
1.07865 -0.56036001 1.042966
1.09506 -0.55825901 1.034812
1.10579 -0.55268502 1.031227
1.1185299 -0.54720503 1.0265239
1.11902 -0.53706098 1.0278339
1.08135 -0.58374101 1.027262
1.0753701 -0.57025099 1.0332919
1.07916 -0.56002599 1.035304
1.09236 -0.55462801 1.030484
1.09297 -0.54537797 1.0325259
1.09737 -0.53763902 1.032038
1.10611 -0.53094602 1.0299859
1.1187999 -0.528826 1.024518
1.08544 -0.59244996 1.016199
1.07733 -0.579243 1.0234779
1.06545 -0.564237 1.032882
1.07242 -0.55879098 1.0313339
1.07613 -0.54947698 1.0321651
1.0883 -0.54363096 1.028443
1.09146 -0.53373903 1.0281659
1.09768 -0.52706003 1.028622
1.09983 -0.51865602 1.028798
1.09199 -0.59644401 1.0052949
1.07329 -0.57846904 1.01809
1.06751 -0.56498796 1.0257519
1.0679001 -0.554582 1.0276409
1.0849099 -0.54097199 1.023087
1.09235 -0.53342897 1.0205311
1.0952101 -0.52374297 1.02347
1.0968801 -0.51486701 1.0244659
1.1099299 -0.51209801 1.0177989
1.07321 -0.59864199 1.003071
1.0794001 -0.59138101 1.005093
1.07212 -0.57880598 1.011156
1.0661 -0.56381804 1.01868
1.06524 -0.55149603 1.0231199
1.0771 -0.54711199 1.0184
1.0870401 -0.54109198 1.015132
1.0935501 -0.534199 1.0130039
1.09532 -0.52410197 1.016071
1.10032 -0.51502204 1.016745
1.10412 -0.50745898 1.0159869
1.1111699 -0.50150299 1.012689
1.05409 -0.62068999 0.99763596
1.05469 -0.61209899 1.000217
1.05625 -0.60096699 1.0036091
1.05826 -0.59196097 1.006478
1.06646 -0.58599496 1.005304
1.06879 -0.57512796 1.006683
1.0625499 -0.56153399 1.013779
1.06788 -0.55331999 1.013798
1.07793 -0.54571897 1.0114009
1.0922899 -0.54242903 1.006053
1.10663 -0.54083198 0.99910897
1.11088 -0.53322899 1.0001709
1.10514 -0.517461 1.00753
1.1000199 -0.49429199 1.013222
1.10818 -0.48851001 1.0103669
1.11625 -0.483152 1.0071709
1.03016 -0.62019098 1.00138
1.03606 -0.61192298 1.00262
1.04554 -0.60543799 1.0012369
1.05971 -0.59316701 0.99955297
1.06223 -0.58231097 1.000701
1.06934 -0.57536203 0.99965197
1.06428 -0.56207699 1.005963
1.05876 -0.54900098 1.012311
1.0728099 -0.54574001 1.0062391
1.09007 -0.54227799 1.000168
1.1079299 -0.541502 0.992576
1.09762 -0.50151503 1.007301
1.09276 -0.490605 1.0116229
1.1008999 -0.48532501 1.008826
1.11062 -0.47944802 1.004866
1.02437 -0.61679399 1.0001349
1.0264499 -0.60822999 1.001551
1.0360399 -0.60274202 0.99967092
1.05642 -0.58990103 0.99512595
1.06066 -0.582569 0.99400103
1.06528 -0.573035 0.99492598
1.06665 -0.56213301 0.99758303
1.06441 -0.55148298 1.002914
1.07078 -0.54511201 1.0002489
1.0806099 -0.53976101 0.99738997
1.092 -0.49952203 1.001789
1.0909801 -0.48935398 1.00576
1.10532 -0.48400602 1.000316
1.10724 -0.47553799 1.0012569
1.11968 -0.47181901 0.99491394
1.02846 -0.60765702 0.994151
1.0374 -0.601448 0.99310797
1.04238 -0.59488302 0.99204302
1.06433 -0.56128502 0.99209493
1.06716 -0.55219001 0.99446595
1.0841 -0.496214 0.99968797
1.08644 -0.48778701 1.0013789
1.10224 -0.48374599 0.99452192
1.11001 -0.47553903 0.99349493
1.11508 -0.46828097 0.99228597
1.11827 -0.46142399 0.9914459
1.08052 -0.50494301 0.99284196
1.07557 -0.49379903 0.99777496
1.08451 -0.48863098 0.99589896
1.07028 -0.50003099 0.99318498
1.0742401 -0.493256 0.99341196
1.14833 -0.591488 1.079026
1.14782 -0.56794798 1.0794469
1.1627201 -0.54965299 1.0784839
1.17794 -0.53873199 1.075498
1.13925 -0.56229097 1.078475
1.1434 -0.55249101 1.079337
1.15153 -0.54540902 1.077899
1.16782 -0.54167199 1.073596
1.17565 -0.535335 1.071245
1.0985399 -0.62058902 1.0701549
1.0842099 -0.60211396 1.0799099
1.1131901 -0.57112902 1.078828
1.12563 -0.56569302 1.076373
1.13728 -0.560835 1.0731149
1.14395 -0.552553 1.072603
1.15123 -0.54491103 1.0721129
1.1577801 -0.53795302 1.071535
1.16917 -0.53222901 1.0684559
1.18414 -0.528404 1.0625789
1.09515 -0.616835 1.065935
1.07939 -0.59683496 1.0758729
1.10453 -0.56747001 1.07629
1.11675 -0.562994 1.072798
1.13366 -0.55944097 1.067716
1.1474299 -0.55404598 1.0627609
1.14905 -0.54287499 1.067099
1.17136 -0.53042799 1.060804
1.0809 -0.59754199 1.068624
1.0729799 -0.58233202 1.075678
1.07855 -0.57310301 1.0767859
1.08249 -0.56419301 1.0775069
1.1055599 -0.56739801 1.068735
1.1206601 -0.56326503 1.0639639
1.1432199 -0.56417197 1.055284
1.1527101 -0.55700999 1.0535799
1.15844 -0.54683501 1.0553269
1.1789399 -0.531753 1.0506901
1.0811599 -0.59679002 1.0615879
1.07569 -0.58469504 1.0669609
1.07713 -0.57423002 1.069657
1.08252 -0.56449002 1.070884
1.10501 -0.56540602 1.061913
1.13388 -0.57086396 1.05005
1.16054 -0.57573599 1.0396229
1.17862 -0.55941504 1.0392359
1.18159 -0.54906899 1.040573
1.0806199 -0.59440303 1.055132
1.07179 -0.57863998 1.063202
1.07307 -0.56826997 1.066384
1.08307 -0.56296998 1.063604
1.1062599 -0.56529802 1.0543239
1.13139 -0.57021403 1.044693
1.08252 -0.595272 1.0460759
1.0697 -0.57771498 1.05689
1.07435 -0.56857198 1.0585669
1.08597 -0.56297702 1.055269
1.1028399 -0.56288701 1.04901
1.08312 -0.59549898 1.038355
1.07647 -0.58239299 1.045694
1.06928 -0.56659198 1.053627
1.0743901 -0.55838001 1.054608
1.0958101 -0.55996698 1.044765
1.11707 -0.56371301 1.035941
1.09263 -0.60144299 1.025798
1.07645 -0.58229196 1.0386831
1.0739499 -0.56942999 1.04387
1.07727 -0.559439 1.046204
1.08858 -0.554232 1.041297
1.1107299 -0.55789399 1.032439
1.07925 -0.58431 1.0299039
1.07441 -0.570665 1.036696
1.07635 -0.55857897 1.0385629
1.0856301 -0.55084002 1.036513
1.09679 -0.54780698 1.0340739
1.09859 -0.53636396 1.034986
1.11045 -0.52920502 1.0310479
1.12251 -0.526223 1.026837
1.08552 -0.589095 1.018919
1.06844 -0.56639498 1.032794
1.06738 -0.553455 1.0358059
1.07813 -0.54765701 1.0331979
1.09059 -0.54190397 1.030867
1.08863 -0.52823102 1.034575
1.0971299 -0.52222097 1.033143
1.1047 -0.51560801 1.031886
1.12257 -0.51760501 1.024096
1.08781 -0.59847903 1.008835
1.0795 -0.58325499 1.0155619
1.0622799 -0.55997002 1.0299779
1.06794 -0.552046 1.029002
1.08535 -0.540034 1.025563
1.08983 -0.52965301 1.027259
1.0882801 -0.51690298 1.0315011
1.0965199 -0.51027399 1.0301739
1.10034 -0.50327498 1.0305849
1.06054 -0.618195 1.0025079
1.06213 -0.61008799 1.004192
1.06266 -0.59795302 1.007993
1.07496 -0.59171098 1.0079179
1.0715899 -0.57972002 1.0120059
1.06388 -0.562029 1.021181
1.0653 -0.55100298 1.023129
1.07358 -0.544043 1.022603
1.08533 -0.538818 1.018042
1.08867 -0.52915102 1.020409
1.09119 -0.51853299 1.022812
1.0887799 -0.505588 1.0275789
1.09779 -0.50016302 1.0253199
1.10607 -0.49665999 1.0226669
1.03327 -0.62595099 1.001959
1.03293 -0.61353296 1.007188
1.0431501 -0.60734701 1.007321
1.04572 -0.59815103 1.009035
1.05047 -0.58983099 1.0095659
1.06323 -0.58591098 1.0067459
1.06407 -0.57300097 1.009802
1.06045 -0.557666 1.016377
1.06224 -0.54657298 1.019106
1.07836 -0.544505 1.013225
1.0879101 -0.53995001 1.010424
1.09269 -0.532368 1.010269
1.0930001 -0.519925 1.014294
1.0912 -0.50671202 1.019112
1.0913501 -0.49632999 1.0225559
1.09738 -0.489328 1.02063
1.0238401 -0.61828601 1.0035219
1.0269899 -0.60952497 1.005662
1.0355101 -0.60343897 1.004529
1.0551699 -0.59057099 1.00169
1.05636 -0.57910502 1.003812
1.06251 -0.57212299 1.003854
1.05984 -0.55984998 1.008865
1.0641 -0.55059701 1.010098
1.06489 -0.53926897 1.013297
1.0859799 -0.53960001 1.004617
1.1016201 -0.53745496 0.99785995
1.0999199 -0.52530998 1.00263
1.08874 -0.50599802 1.012529
1.09093 -0.49443501 1.015869
1.1012501 -0.48839 1.011737
1.12181 -0.490266 1.001956
1.02561 -0.60962701 0.99973398
1.02973 -0.60083401 0.99996698
1.03991 -0.59560502 0.99812394
1.0512999 -0.58910799 0.99571592
1.0546601 -0.57795298 0.99757695
1.05959 -0.56895196 0.99931598
1.05476 -0.55328298 1.006145
1.05959 -0.54524398 1.007208
1.06541 -0.53783101 1.0064369
1.0901799 -0.51738501 1.001758
1.07476 -0.496851 1.013224
1.08593 -0.49306899 1.011324
1.08892 -0.483358 1.0123039
1.1086 -0.48199001 1.003237
1.12915 -0.482645 0.99356896
1.0249 -0.60806799 0.992782
1.05916 -0.56938702 0.99243599
1.05654 -0.55512297 0.99780595
1.06107 -0.54616904 0.99964094
1.06901 -0.53967899 0.99701494
1.06923 -0.50389898 1.0069079
1.07007 -0.49377701 1.009954
1.07842 -0.48829401 1.0087819
1.09207 -0.482425 1.004337
1.10675 -0.47904399 0.99866897
1.1124901 -0.472141 0.99727798
1.05784 -0.49751598 1.007293
1.0689 -0.493891 1.0043679
1.08389 -0.49160999 0.99899203
1.10711 -0.47689098 0.99335998
1.1080899 -0.467994 0.99426997
1.11304 -0.46152499 0.99286097
1.04731 -0.52514601 0.99569297
1.0705301 -0.49593499 0.99681997
1.0204 -0.53062302 0.99858695
1.15297 -0.57953203 1.078884
1.16003 -0.56834596 1.0785769
1.1701699 -0.56210798 1.0772359
1.13557 -0.57914197 1.079939
1.14218 -0.56880003 1.0788109
1.14882 -0.55962503 1.078885
1.16166 -0.55582803 1.076299
1.16877 -0.54853898 1.075578
1.18318 -0.54462796 1.070262
1.08665 -0.60592496 1.078826
1.12825 -0.57268 1.0761679
1.13518 -0.56459302 1.0757329
1.14475 -0.55946201 1.0737939
1.1543801 -0.55210096 1.072872
1.16904 -0.54711497 1.0693799
1.1815 -0.54178798 1.0662169
1.19008 -0.534244 1.0640301
1.0935501 -0.57363099 1.078632
1.10396 -0.56939501 1.0765289
1.1178501 -0.56789798 1.0728
1.13361 -0.56418401 1.0692459
1.14669 -0.55801201 1.0658009
1.17887 -0.53995401 1.061024
1.0757 -0.58561403 1.0732629
1.0763401 -0.57655203 1.075897
1.0818599 -0.56796801 1.0767349
1.0997 -0.56673902 1.0717499
1.12257 -0.56909698 1.063656
1.14039 -0.567303 1.058508
1.148 -0.55935198 1.0578419
1.1589299 -0.55192101 1.05669
1.16704 -0.54324299 1.057014
1.1843901 -0.54185098 1.050887
1.074 -0.582434 1.0675
1.07566 -0.57343698 1.070208
1.08593 -0.56856996 1.0678699
1.1031899 -0.56746203 1.0628849
1.13255 -0.575041 1.052303
1.14807 -0.57082403 1.049538
1.1621499 -0.56636298 1.046029
1.17022 -0.55777401 1.04483
1.17405 -0.54709101 1.046362
1.18445 -0.53936696 1.0439819
1.0738701 -0.581828 1.060218
1.08996 -0.570117 1.0587109
1.0988201 -0.56462103 1.058443
1.1906099 -0.55905998 1.0317789
1.0716799 -0.57056803 1.0572079
1.07736 -0.56401002 1.0571309
1.09431 -0.56440699 1.0512959
1.07502 -0.58178598 1.044498
1.06811 -0.56695902 1.0529759
1.08304 -0.56577098 1.0467509
1.09361 -0.56107801 1.043732
1.0695601 -0.57712698 1.039855
1.0734 -0.57049704 1.0425789
1.0756199 -0.56030798 1.0433209
1.09117 -0.558788 1.038227
1.1087201 -0.55949903 1.031504
1.07005 -0.57803601 1.031886
1.07102 -0.56812 1.035995
1.07447 -0.556741 1.037867
1.09201 -0.55810201 1.031531
1.09559 -0.54935801 1.0326279
1.0968599 -0.53576303 1.034796
1.11163 -0.53338403 1.0292529
1.07113 -0.58048201 1.0239819
1.06759 -0.568003 1.0292419
1.0757 -0.560637 1.028935
1.0817701 -0.54979199 1.0301309
1.0903801 -0.541053 1.0296899
1.0929799 -0.53087896 1.031746
1.09734 -0.52280402 1.0318609
1.06839 -0.61964804 1.0026391
1.0735099 -0.61356604 1.0025799
1.07645 -0.60258096 1.00561
1.0668 -0.57921797 1.018279
1.06661 -0.56486499 1.022568
1.0747399 -0.55610901 1.023231
1.08736 -0.540721 1.023098
1.0927 -0.52968699 1.0256009
1.09789 -0.52156401 1.025816
1.10138 -0.51354301 1.0259559
1.0331199 -0.63230699 1.001763
1.04004 -0.62644798 1.0017909
1.04609 -0.61818004 1.00313
1.05672 -0.61128402 1.0038199
1.05915 -0.60035402 1.0061009
1.06409 -0.58955002 1.008883
1.06449 -0.57583696 1.012567
1.0596 -0.55959898 1.019791
1.07072 -0.55516201 1.0171599
1.0814099 -0.54903901 1.016657
1.0906301 -0.54278302 1.0131279
1.096 -0.53274399 1.015437
1.09618 -0.519611 1.020494
1.09798 -0.50798696 1.021036
1.10737 -0.50357604 1.018636
1.0297799 -0.61884302 1.0019469
1.03877 -0.61120099 1.00179
1.04805 -0.60550398 1.0022639
1.0515699 -0.59563899 1.0029759
1.06085 -0.58734602 1.002582
1.05948 -0.57136399 1.00815
1.06234 -0.56127703 1.01174
1.06577 -0.55055898 1.0122949
1.07566 -0.54486501 1.012254
1.09725 -0.54782504 1.001932
1.10181 -0.53757703 1.0035889
1.0974 -0.51956099 1.0117459
1.09132 -0.50136399 1.018477
1.10338 -0.49923697 1.01546
1.10903 -0.48970199 1.014454
1.12605 -0.48859599 1.0073019
1.02861 -0.61942601 0.99479401
1.03546 -0.610686 0.99570101
1.0443801 -0.60277098 0.99706793
1.05549 -0.596573 0.99346495
1.0610299 -0.58625197 0.99479192
1.05968 -0.57235003 1.000554
1.05999 -0.55822599 1.005723
1.0620099 -0.54696602 1.008091
1.07377 -0.54249698 1.0053239
1.09703 -0.544828 0.996225
1.1113501 -0.54361498 0.99140704
1.10304 -0.52615398 0.99977493
1.08904 -0.50171399 1.0119519
1.0994101 -0.49461401 1.0109971
1.10798 -0.486902 1.008947
1.12094 -0.484586 1.0050969
1.05976 -0.57309103 0.992872
1.06295 -0.56189501 0.99560195
1.0623001 -0.546552 1.001102
1.07341 -0.541085 0.99806792
1.08083 -0.50740796 1.005827
1.0842099 -0.49785399 1.007916
1.09232 -0.49219799 1.006736
1.09966 -0.48349398 1.0064
1.1134 -0.47970101 1.0020519
1.12075 -0.47543499 1.0018449
1.0656099 -0.55191201 0.99050093
1.06982 -0.51159102 1.001398
1.07219 -0.501136 1.0042679
1.07998 -0.49480999 1.0036819
1.09668 -0.491822 0.99713194
1.10673 -0.48423803 0.99610198
1.10857 -0.47494301 0.99831796
1.11739 -0.471946 0.99582398
1.0729699 -0.501436 0.99772191
1.08009 -0.49360901 0.99685395
1.1109201 -0.475124 0.99021304
1.113 -0.46609798 0.99093294
1.0720301 -0.50099498 0.99223596
1.1726201 -0.586999 1.0773009
1.15695 -0.57507497 1.0799249
1.16167 -0.56364101 1.079855
1.16926 -0.55334204 1.0791839
1.08737 -0.61778599 1.078833
1.13661 -0.573825 1.079131
1.14713 -0.56685799 1.077724
1.15528 -0.55740601 1.076456
1.1655101 -0.54980803 1.075395
1.1774601 -0.54481298 1.072956
1.0836101 -0.61338502 1.0739239
1.10385 -0.57732302 1.078882
1.1154599 -0.57231599 1.076749
1.13472 -0.57154101 1.072125
1.14772 -0.56461501 1.069227
1.15696 -0.55495703 1.0694389
1.1609501 -0.54328096 1.0712199
1.17697 -0.54288 1.067332
1.18692 -0.53568101 1.0653419
1.0743099 -0.59244001 1.0756
1.07679 -0.58046603 1.076354
1.08425 -0.57318199 1.0770489
1.0999501 -0.57287902 1.0734919
1.11961 -0.57308698 1.0675169
1.1329 -0.56816 1.0650879
1.1472 -0.56568003 1.061497
1.1619101 -0.54551202 1.0629669
1.17082 -0.538755 1.0634769
1.18209 -0.53330004 1.061102
1.0718499 -0.58728004 1.069253
1.07529 -0.57816201 1.069116
1.0839701 -0.57214296 1.0707359
1.1016899 -0.571702 1.065264
1.12133 -0.57298201 1.059381
1.1584101 -0.55403197 1.0551829
1.1733201 -0.55138803 1.0503889
1.17467 -0.53978598 1.054634
1.1848301 -0.53109902 1.052773
1.06906 -0.58346999 1.062155
1.07319 -0.57558399 1.0630519
1.08315 -0.56986403 1.063259
1.10323 -0.57117498 1.057166
1.12185 -0.57391298 1.052256
1.17915 -0.55502397 1.0417
1.17951 -0.54108101 1.0447899
1.07101 -0.58600104 1.052441
1.07345 -0.57648897 1.055612
1.07916 -0.56838202 1.0573659
1.09653 -0.568479 1.051622
1.1120501 -0.56932497 1.048437
1.07286 -0.58799499 1.0444839
1.07269 -0.57673299 1.0475259
1.08075 -0.567752 1.04898
1.09289 -0.56294996 1.046095
1.10639 -0.56473804 1.0431619
1.07162 -0.58631003 1.038399
1.06794 -0.57201695 1.042462
1.07666 -0.56551498 1.042043
1.0856 -0.55716801 1.042691
1.1055 -0.56140798 1.035762
1.06751 -0.56884402 1.0365469
1.06788 -0.556189 1.040218
1.08097 -0.55381399 1.036895
1.09507 -0.55187398 1.0343829
1.0978 -0.53989702 1.035679
1.1058899 -0.53040403 1.0337139
1.0703 -0.57373202 1.027082
1.0742099 -0.56171203 1.029263
1.08784 -0.54301 1.031076
1.09794 -0.53522402 1.0302429
1.09817 -0.521339 1.032712
1.0372599 -0.634642 1.005024
1.04334 -0.62714696 1.0057999
1.0502601 -0.61881399 1.0072069
1.05222 -0.60555196 1.011451
1.06398 -0.59925002 1.010772
1.06528 -0.58595103 1.015079
1.0679001 -0.57235503 1.01991
1.06979 -0.557244 1.023042
1.08626 -0.54087102 1.0232559
1.09226 -0.529562 1.026335
1.0934401 -0.516505 1.029542
1.1028199 -0.51207805 1.027391
1.11395 -0.51112801 1.024507
1.03062 -0.61559397 1.0069
1.04343 -0.61086398 1.0062909
1.05362 -0.603827 1.0062339
1.05351 -0.58869201 1.010805
1.06276 -0.58140701 1.010592
1.06419 -0.566486 1.014372
1.069 -0.55592996 1.016541
1.07583 -0.54681098 1.017688
1.09004 -0.54404801 1.0139099
1.0939801 -0.53306401 1.0160339
1.09419 -0.516711 1.02223
1.09541 -0.504583 1.0252049
1.10332 -0.50099099 1.023374
1.03056 -0.61488301 0.99955297
1.0460299 -0.59759498 1.002556
1.0632701 -0.57973897 1.003739
1.05777 -0.561584 1.010136
1.0675 -0.55392504 1.0101099
1.0722899 -0.54309899 1.01248
1.0902801 -0.54379797 1.006609
1.10339 -0.54073101 1.003426
1.09543 -0.52066898 1.01246
1.09884 -0.507824 1.015641
1.10076 -0.49533799 1.016608
1.03246 -0.615228 0.99144
1.0349801 -0.60318398 0.99672997
1.0479 -0.600586 0.99230599
1.05351 -0.58955103 0.99465698
1.05768 -0.57546103 0.99910897
1.05811 -0.55936402 1.00342
1.0663099 -0.55155396 1.002856
1.07365 -0.54307401 1.0046899
1.09016 -0.54323202 0.99951094
1.09126 -0.51476103 1.0078779
1.0932801 -0.50119901 1.010944
1.1004901 -0.49240199 1.00982
1.10765 -0.48516601 1.0097769
1.06024 -0.56460303 0.99365598
1.06161 -0.55023402 0.99751002
1.0696 -0.54068601 0.99794495
1.0810399 -0.50447601 1.006629
1.0892199 -0.496865 1.005957
1.10394 -0.49431199 1.000504
1.1044999 -0.48051202 1.005656
1.11807 -0.47815299 1.001438
1.12981 -0.47630402 0.9974069
1.0725399 -0.50977796 1.000291
1.07893 -0.501095 1.001758
1.0908 -0.497529 0.99815798
1.10552 -0.49467301 0.99257994
1.10513 -0.48041901 0.99798495
1.11273 -0.47275901 0.99831194
1.1241001 -0.47115001 0.99522799
1.02255 -0.52934802 1.002399
1.0770099 -0.50025201 0.99641496
1.1123 -0.47151601 0.99099791
1.17107 -0.54650199 1.079877
1.11315 -0.57860202 1.079404
1.1297799 -0.57563996 1.0774399
1.14296 -0.56901902 1.075515
1.1534899 -0.56155401 1.074255
1.15949 -0.55035198 1.0765439
1.1750901 -0.54675597 1.072657
1.18337 -0.53991503 1.07179
1.0899401 -0.582681 1.076261
1.0993199 -0.57921797 1.0756329
1.12486 -0.57415098 1.070366
1.13634 -0.56730497 1.069634
1.1484101 -0.56080401 1.068187
1.1669 -0.54048198 1.0696269
1.18492 -0.54116201 1.065178
1.08348 -0.57643104 1.070594
1.1005599 -0.57970798 1.067184
1.11321 -0.57594895 1.065532
1.12631 -0.572339 1.063063
1.1664801 -0.55650198 1.056034
1.18334 -0.53802502 1.0578259
1.1115201 -0.57609904 1.058632
1.1307399 -0.57340598 1.0556639
1.14816 -0.57152402 1.05207
1.15888 -0.56393301 1.0506979
1.1665699 -0.55313599 1.050154
1.1796601 -0.533517 1.0518739
1.08164 -0.57470798 1.057285
1.0912 -0.57257199 1.054845
1.18041 -0.54776299 1.0408159
1.08154 -0.57276797 1.048573
1.08385 -0.56362498 1.0501549
1.1126699 -0.573192 1.036412
1.07734 -0.56797701 1.041906
1.08816 -0.56675398 1.040846
1.10171 -0.565494 1.037509
1.10674 -0.555224 1.037094
1.07126 -0.562751 1.0369589
1.08302 -0.56179297 1.035501
1.09224 -0.55561101 1.036238
1.09909 -0.54683501 1.034887
1.1025901 -0.535667 1.035964
1.0675399 -0.55896801 1.031924
1.0746499 -0.55453897 1.03187
1.08854 -0.55167097 1.02977
1.0967 -0.54147398 1.0295379
1.10076 -0.53026599 1.031269
1.10253 -0.52043802 1.033299
1.06598 -0.55599898 1.025648
1.08629 -0.54600698 1.022812
1.0932 -0.53419298 1.025154
1.09806 -0.52483296 1.027239
1.10129 -0.51649702 1.027288
1.0625399 -0.55219501 1.01983
1.0743001 -0.55059701 1.01693
1.0882499 -0.54883099 1.0135449
1.09567 -0.53975302 1.014249
1.09516 -0.52219301 1.021259
1.09896 -0.51151299 1.020625
1.06513 -0.55419701 1.0106999
1.07192 -0.54829901 1.0089129
1.08435 -0.54408699 1.0084959
1.10278 -0.54602402 1.0028989
1.0939499 -0.52191198 1.0130409
1.09394 -0.50561404 1.016353
1.09983 -0.49426898 1.017095
1.11459 -0.49153998 1.0128599
1.06365 -0.55174303 1.0030659
1.07345 -0.550143 1.0007679
1.0785 -0.539864 1.0025699
1.09409 -0.53716999 1.001105
1.09035 -0.51670897 1.007444
1.09083 -0.50058198 1.011526
1.0987201 -0.49246103 1.011022
1.10934 -0.48641101 1.009733
1.11808 -0.48206502 1.008687
1.06212 -0.53827798 1.000729
1.07744 -0.52039599 1.0027
1.08283 -0.50817698 1.004218
1.08894 -0.49726102 1.005417
1.10197 -0.49185902 1.002664
1.10472 -0.47969201 1.006223
1.11151 -0.47338599 1.0057179
1.08058 -0.504646 0.99867296
1.09455 -0.50079101 0.99477899
1.10535 -0.47839698 0.99893194
1.10999 -0.46849999 0.99974197
1.12386 -0.470961 0.99499202
1.10891 -0.468014 0.99365693
1.11895 -0.46463403 0.99070394
1.1225901 -0.56997895 1.078508
1.13073 -0.57484901 1.0793099
1.13483 -0.58433998 1.079572
1.13482 -0.56435603 1.0754939
1.13677 -0.57428199 1.074301
1.14223 -0.58300298 1.07529
1.1417 -0.59237301 1.071506
1.1585 -0.55228001 1.0795579
1.14205 -0.57029998 1.068887
1.14256 -0.58177698 1.067516
1.12806 -0.59840602 1.056546
1.17419 -0.54277098 1.0748791
1.14689 -0.566836 1.0636339
1.1490899 -0.575863 1.062382
1.17483 -0.54239297 1.0698819
1.14533 -0.57642698 1.051308
1.16757 -0.55406499 1.056311
1.14899 -0.57275504 1.0451
1.1683201 -0.54548401 1.051507
1.16875 -0.55268401 1.048878
1.1649801 -0.546067 1.0407959
1.1693901 -0.55050999 1.0397949
1.17012 -0.540914 1.034586
1.17161 -0.53852099 1.029013
1.1364601 -0.52404398 0.99045998
1.0725701 -0.59986597 1.077016
1.0760701 -0.58798003 1.0737579
1.07566 -0.63310003 1.077939
1.07016 -0.61330599 1.074384
1.06717 -0.60303396 1.072927
1.07206 -0.58975798 1.067941
1.08152 -0.62859899 1.0663309
1.0746499 -0.62341398 1.069217
1.0686699 -0.61593604 1.06785
1.06569 -0.60444903 1.066649
1.07224 -0.58612299 1.0579799
1.09155 -0.62187099 1.053082
1.07375 -0.623622 1.061131
1.06742 -0.61360902 1.0606949
1.06144 -0.604626 1.060578
1.07574 -0.58095098 1.047855
1.08793 -0.557639 1.037984
1.0900199 -0.54073101 1.0322549
1.09029 -0.52725899 1.027898
1.0910801 -0.51602 1.02442
1.09902 -0.61698401 1.0414209
1.0842099 -0.617136 1.047719
1.07008 -0.61385 1.052202
1.06586 -0.60188699 1.050759
1.07093 -0.58403999 1.0429779
1.08173 -0.56207401 1.034276
1.08788 -0.54172403 1.0275279
1.09067 -0.52643901 1.022344
1.0866101 -0.51961398 1.0211369
1.10427 -0.61309302 1.031062
1.0908899 -0.61267602 1.036443
1.07384 -0.61197495 1.042748
1.06387 -0.60637498 1.045498
1.0770099 -0.566787 1.028767
1.08593 -0.54435599 1.0211799
1.08822 -0.52876002 1.0173069
1.09311 -0.51438498 1.009725
1.11448 -0.605299 1.0185449
1.09418 -0.60998297 1.02694
1.07679 -0.60971904 1.0334669
1.06531 -0.604159 1.037079
1.07345 -0.56757402 1.022261
1.07862 -0.55041701 1.017134
1.08892 -0.52855498 1.008884
1.0877 -0.51884902 1.0050969
1.0937101 -0.60866904 1.0190279
1.07697 -0.60927099 1.025335
1.0685 -0.60113204 1.027137
1.06209 -0.59126902 1.024205
1.06934 -0.57173997 1.017496
1.0748 -0.55447298 1.012205
1.08009 -0.60606998 1.0153099
1.06548 -0.60276103 1.020026
1.05625 -0.59538698 1.0199289
1.06429 -0.57637 1.01252
1.06593 -0.562006 1.0092999
1.08709 -0.59946001 1.002829
1.06908 -0.60092801 1.010141
1.05575 -0.59794104 1.014585
1.05678 -0.583799 1.009584
1.06295 -0.56597501 1.002687
1.07232 -0.59799802 0.99987793
1.06287 -0.590927 1.002172
1.06171 -0.576361 0.99814391
1.0620301 -0.56494302 0.99543595
1.0597399 -0.59363002 0.99564391
1.0546299 -0.58387297 0.99543399
1.0497899 -0.59905601 0.99245191
1.0704 -0.59245604 1.0746219
1.07556 -0.63007903 1.074212
1.0703701 -0.62410098 1.074446
1.05979 -0.61775702 1.077909
1.05446 -0.61015302 1.0779619
1.06197 -0.59701401 1.071682
1.07662 -0.62899703 1.066214
1.06926 -0.624865 1.068102
1.06545 -0.616041 1.0673469
1.05595 -0.60919303 1.0705429
1.06244 -0.59343797 1.061891
1.08838 -0.62200296 1.051911
1.0707099 -0.62303197 1.060401
1.06186 -0.61747503 1.062269
1.06046 -0.60605699 1.0595939
1.06627 -0.588485 1.0520959
1.0798301 -0.56791097 1.04215
1.09436 -0.54702097 1.030919
1.08726 -0.54167199 1.0311099
1.0898 -0.62133902 1.043604
1.07508 -0.62110001 1.05056
1.0634301 -0.61666 1.0552
1.05831 -0.60833001 1.0532939
1.0572699 -0.59557599 1.0501339
1.07649 -0.56986803 1.03748
1.08426 -0.55285096 1.030736
1.10827 -0.61004901 1.027112
1.08373 -0.61569303 1.038432
1.06382 -0.61635602 1.047475
1.05884 -0.60591203 1.044984
1.05624 -0.59510601 1.043095
1.0691301 -0.57529598 1.033954
1.0778199 -0.55593604 1.026328
1.07565 -0.545349 1.023091
1.06269 -0.54546905 1.028172
1.08503 -0.613644 1.0296739
1.06936 -0.61200202 1.0361249
1.06139 -0.60422498 1.036243
1.05339 -0.59854698 1.0387349
1.0680799 -0.56453997 1.0242679
1.07629 -0.54636902 1.016466
1.06506 -0.54386002 1.019976
1.09184 -0.608082 1.01718
1.07517 -0.60896897 1.0250909
1.06559 -0.60352099 1.028191
1.05602 -0.59630102 1.029482
1.06801 -0.56136 1.015985
1.07338 -0.54686499 1.010797
1.06288 -0.54573703 1.014097
1.07722 -0.606978 1.01615
1.0675399 -0.600905 1.0191159
1.05024 -0.59973001 1.0252349
1.05128 -0.58789301 1.021611
1.05653 -0.57149702 1.0153229
1.0682 -0.55218601 1.006356
1.0875701 -0.59954202 1.0033519
1.06636 -0.60198098 1.012017
1.0556999 -0.595797 1.0149679
1.05162 -0.58488899 1.013134
1.06271 -0.56577897 1.0037429
1.06321 -0.55631399 1.001138
1.0718499 -0.59776902 1.001071
1.05874 -0.59564704 1.0063699
1.05127 -0.58826399 1.006904
1.0483299 -0.577685 1.004985
1.0550801 -0.56316203 0.99808002
1.05883 -0.593934 0.99813998
1.04758 -0.58820099 1.0014679
1.05165 -0.57475102 0.99526298
1.05802 -0.59555602 0.99024892
1.05169 -0.58594 0.99189895
1.02832 -0.61250901 0.990767
1.08945 -0.62081003 1.069754
1.0601799 -0.60542899 1.079268
1.07011 -0.59106499 1.071438
1.09075 -0.62043101 1.061806
1.0705 -0.62183303 1.071864
1.05337 -0.62072802 1.079515
1.05971 -0.60681802 1.073187
1.06565 -0.59258002 1.067078
1.08268 -0.57598901 1.056924
1.0993 -0.61645401 1.050151
1.07854 -0.61800599 1.060365
1.0593901 -0.61639899 1.068977
1.05542 -0.60614496 1.0677309
1.0674 -0.59021902 1.0586619
1.0661399 -0.58362401 1.058948
1.11111 -0.61140901 1.0372139
1.08527 -0.61546302 1.049979
1.06224 -0.61577201 1.0602609
1.05187 -0.610394 1.063957
1.05498 -0.59843802 1.059108
1.06165 -0.58576 1.053432
1.1261799 -0.60532498 1.0242039
1.10537 -0.608302 1.034171
1.0594699 -0.61632597 1.0550059
1.054 -0.60873502 1.0554169
1.05549 -0.59690702 1.0509509
1.10585 -0.608576 1.029191
1.0552 -0.61502498 1.0488399
1.05285 -0.60726297 1.048461
1.05278 -0.598786 1.045238
1.06054 -0.61193103 1.037444
1.05522 -0.60644197 1.0402939
1.04985 -0.59930402 1.039616
1.0634301 -0.61072099 1.0281119
1.05158 -0.60789502 1.0342959
1.04953 -0.59931099 1.032478
1.04345 -0.59467703 1.0350599
1.06879 -0.60836297 1.017741
1.05733 -0.605968 1.023795
1.04919 -0.60096598 1.027077
1.04495 -0.59484696 1.026835
1.05875 -0.60527599 1.0156829
1.04882 -0.60101801 1.0204339
1.0462101 -0.59412402 1.018049
1.0670201 -0.60125101 1.003623
1.0503601 -0.60003299 1.012131
1.04377 -0.59530604 1.011892
1.07161 -0.59924597 0.99353701
1.0455999 -0.60251403 1.007368
1.0378 -0.598203 1.0079219
1.04287 -0.60395503 1.0006789
1.03777 -0.598198 1.0011449
1.0462999 -0.61008298 0.99398994
1.02821 -0.61126101 1.001159
1.0313201 -0.60142601 0.99747193
1.02441 -0.621117 0.998667
1.07359 -0.62214804 1.070542
1.0822799 -0.618406 1.0585339
1.0606999 -0.61855596 1.070383
1.049 -0.61392701 1.0750439
1.08796 -0.61657 1.048416
1.06885 -0.61615598 1.05879
1.0483 -0.61511397 1.069378
1.02845 -0.61615503 1.0778949
1.0939 -0.61423898 1.038343
1.07103 -0.61593199 1.0506099
1.05449 -0.61418897 1.059768
1.0931801 -0.61395597 1.032288
1.07454 -0.61459398 1.041737
1.05691 -0.61458099 1.0513999
1.07472 -0.613473 1.0345689
1.06366 -0.61219198 1.040604
1.08014 -0.61080003 1.025438
1.06475 -0.61092401 1.033451
1.0647399 -0.61032903 1.028252
1.09463 -0.56801301 1.0516369
1.07363 -0.57404202 1.0578541
1.08719 -0.56461799 1.050561
1.06564 -0.576729 1.055553
1.08172 -0.56639802 1.048004
1.0429901 -0.58960998 1.062621
1.06356 -0.57757097 1.049925
1.06845 -0.56876999 1.0475719
1.1059201 -0.54461199 1.023294
1.09372 -0.54087299 1.028505
1.08763 -0.533503 1.0298489
1.0804499 -0.52569002 1.031445
1.04302 -0.59043002 1.056407
1.0581601 -0.57919401 1.046454
1.06209 -0.56932199 1.0439119
1.08144 -0.55357099 1.032553
1.07723 -0.54496598 1.032367
1.0725 -0.53635001 1.032813
1.07169 -0.52735198 1.0312569
1.07724 -0.51530498 1.0256599
1.0879 -0.499486 1.0170399
1.0981801 -0.486624 1.009028
1.0438401 -0.59114099 1.0499179
1.04492 -0.58431399 1.0479569
1.05597 -0.57157099 1.039853
1.0716701 -0.55594003 1.0308559
1.0759701 -0.53368801 1.0244859
1.07657 -0.52408004 1.022694
1.0725499 -0.51659697 1.021956
1.0764099 -0.50499201 1.018595
1.08726 -0.49083802 1.010368
1.1049299 -0.47612202 0.99812895
1.04333 -0.59095299 1.04397
1.04645 -0.58241004 1.039573
1.05537 -0.570539 1.0330009
1.0637001 -0.55931097 1.0279269
1.06721 -0.549025 1.025197
1.06831 -0.53918898 1.022527
1.07105 -0.52714598 1.0192469
1.07268 -0.51680803 1.0153909
1.0692099 -0.50858396 1.0161099
1.07275 -0.49716598 1.01262
1.09059 -0.480782 0.99979597
1.10201 -0.46898499 0.99184901
1.04316 -0.58366603 1.033981
1.0470999 -0.573713 1.031419
1.06197 -0.55100101 1.021235
1.0751899 -0.53594601 1.011982
1.0745701 -0.52335501 1.0100999
1.0719301 -0.514422 1.009182
1.07339 -0.50418001 1.0065759
1.07569 -0.493837 1.003754
1.08392 -0.48223302 0.99609101
1.08647 -0.47257099 0.99267393
1.04203 -0.59098703 1.029974
1.0434999 -0.58410299 1.027838
1.0412 -0.576114 1.027591
1.05783 -0.56122702 1.0183859
1.0671 -0.54941398 1.010824
1.07592 -0.51259702 1.0009419
1.06925 -0.496326 1.0000249
1.04061 -0.59164697 1.024027
1.0384899 -0.58539796 1.0243109
1.03664 -0.57671398 1.0225229
1.0562201 -0.56129003 1.011167
1.0671 -0.55019999 1.0033879
1.06049 -0.49955502 0.99799395
1.03572 -0.59303302 1.0195769
1.0365 -0.584611 1.0180409
1.03189 -0.57791501 1.019351
1.04931 -0.56431502 1.007311
1.05852 -0.552872 1.000991
1.03813 -0.59411401 1.0105189
1.0350599 -0.58692598 1.01175
1.0375 -0.57678801 1.010244
1.0406801 -0.56716996 1.0053149
1.0567601 -0.55297601 0.994187
1.02302 -0.604967 1.01445
1.0353299 -0.59524798 1.0057449
1.0328701 -0.58784801 1.00655
1.03276 -0.578857 1.0056759
1.0289299 -0.60380697 1.004778
1.0274501 -0.598248 1.003786
1.03136 -0.58851504 1.0008969
1.0259 -0.60462499 0.99924898
1.03053 -0.596371 0.99592191
1.01965 -0.60736501 0.995345
1.13305 -0.57175499 1.079106
1.1285501 -0.58206797 1.079393
1.12397 -0.60392702 1.0781779
1.02386 -0.52222902 1.016644
1.14117 -0.56086498 1.0745881
1.14606 -0.569556 1.078074
1.13994 -0.58047301 1.0765179
1.14001 -0.59179598 1.07564
1.13221 -0.60266602 1.0742919
1.13346 -0.610479 1.0732069
1.03643 -0.50601602 1.012601
1.1494401 -0.55066198 1.070233
1.15405 -0.560785 1.0751849
1.15027 -0.57002604 1.073568
1.13393 -0.58029997 1.065166
1.1273301 -0.59055001 1.061344
1.1333001 -0.60171103 1.0658729
1.12581 -0.61019403 1.0609339
1.04344 -0.49779201 1.00773
1.05196 -0.50561798 1.0128289
1.06768 -0.51390898 1.0215449
1.13746 -0.53842402 1.055756
1.15528 -0.54836702 1.065345
1.15265 -0.55955601 1.067148
1.15017 -0.570104 1.0655299
1.13026 -0.58059198 1.055179
1.12723 -0.592426 1.053815
1.13002 -0.60300499 1.0565019
1.1101899 -0.60962701 1.0451939
1.07214 -0.498779 1.01423
1.06352 -0.50524104 1.0114219
1.1416 -0.56999201 1.0527229
1.12312 -0.58115798 1.04309
1.11604 -0.59134501 1.040452
1.12064 -0.60116202 1.0435979
1.10059 -0.60846698 1.0328259
1.08778 -0.48781398 1.010049
1.0936199 -0.49705201 1.0147549
1.09034 -0.50567901 1.016305
1.17856 -0.54936999 1.06291
1.15407 -0.55970901 1.050914
1.12635 -0.570117 1.036281
1.12747 -0.58046502 1.037783
1.12098 -0.59048402 1.03541
1.1175901 -0.60007799 1.0332739
1.09498 -0.47867501 1.005379
1.10448 -0.48830602 1.012135
1.10269 -0.496566 1.0117329
1.0974801 -0.50426799 1.0102379
1.18938 -0.54017198 1.060366
1.1881601 -0.54896301 1.059778
1.13202 -0.56168598 1.031911
1.11209 -0.56865698 1.020685
1.11752 -0.57922602 1.024927
1.1170601 -0.59053397 1.024467
1.1121 -0.59889704 1.020782
1.1026 -0.479251 1.002771
1.10445 -0.48842603 1.0055969
1.1027 -0.49679798 1.004681
1.1129 -0.50532198 1.010502
1.18578 -0.54655898 1.049667
1.10411 -0.560395 1.0082829
1.11315 -0.56985301 1.014199
1.1157399 -0.58025002 1.0155129
1.10414 -0.47574401 0.99356097
1.10618 -0.48725602 0.99862099
1.11015 -0.49617803 1.001303
1.16854 -0.54433995 1.0334209
1.10367 -0.55833602 0.99808997
1.11282 -0.56965303 1.0049189
1.1071601 -0.58099401 1.003212
1.10682 -0.59075803 1.002391
1.10918 -0.48444802 0.99068397
1.1123101 -0.55883998 0.995179
1.1150399 -0.56956697 0.99694598
1.11051 -0.58067298 0.99643999
1.10243 -0.59066898 0.99247694
1.1187301 -0.56745797 0.99100798
1.1171399 -0.57855397 0.99090898
1.1364499 -0.48007199 0.99170095
1.13346 -0.57039905 1.077708
1.12898 -0.59025699 1.078198
1.12681 -0.60065103 1.079688
1.1262001 -0.610627 1.0786409
1.1206 -0.61981201 1.076443
1.04573 -0.50611901 1.019803
1.0476 -0.51336402 1.021407
1.145 -0.56023902 1.0744259
1.14358 -0.56909597 1.074754
1.13073 -0.57929003 1.0709929
1.12501 -0.58994299 1.06848
1.1288301 -0.601062 1.072907
1.11634 -0.61040401 1.066635
1.11471 -0.61934298 1.067084
1.0520999 -0.49807301 1.0145479
1.0542099 -0.50670797 1.017818
1.0726 -0.51665002 1.028307
1.1463 -0.54971099 1.066371
1.14666 -0.55933601 1.0691739
1.14723 -0.56812 1.0693159
1.13831 -0.57751399 1.066255
1.13228 -0.58846802 1.064478
1.12277 -0.59990102 1.061242
1.11138 -0.60941601 1.0558479
1.0867701 -0.61330503 1.042238
1.0809799 -0.501683 1.02214
1.07245 -0.508371 1.020656
1.1361001 -0.53791201 1.0528029
1.14476 -0.55785596 1.0607539
1.13652 -0.56835997 1.056295
1.12472 -0.57856202 1.0524089
1.11833 -0.58907396 1.049281
1.11561 -0.60025603 1.0500309
1.0935 -0.60573697 1.039151
1.03371 -0.61708701 1.0061539
1.09587 -0.49454898 1.0205669
1.0904499 -0.50006503 1.018423
1.08904 -0.50834501 1.020383
1.1421 -0.55675399 1.0508269
1.11411 -0.56474096 1.035772
1.12062 -0.57803202 1.04182
1.1168699 -0.58806199 1.0406489
1.1151 -0.59778702 1.04118
1.05976 -0.607548 1.011076
1.0351599 -0.61502498 0.99941301
1.02999 -0.62479901 0.99936795
1.08788 -0.479691 1.004741
1.09793 -0.49125499 1.012929
1.1001 -0.499908 1.016423
1.17872 -0.54147202 1.058629
1.17862 -0.55049497 1.0609009
1.12463 -0.55788702 1.034043
1.1105599 -0.56428599 1.025979
1.11167 -0.57454699 1.0281379
1.11299 -0.58709699 1.030901
1.0626999 -0.60637498 1.0049
1.0360299 -0.61449504 0.9926579
1.02983 -0.62413502 0.99091601
1.09087 -0.468705 0.99604493
1.0999501 -0.48032701 1.003808
1.0979199 -0.48875999 1.0048159
1.18795 -0.54907602 1.0568889
1.10987 -0.55626398 1.017272
1.10909 -0.56589699 1.017668
1.11449 -0.578381 1.022105
1.11059 -0.58911496 1.021842
1.06645 -0.60488999 0.99843699
1.04608 -0.61482602 0.99048293
1.09966 -0.469042 0.99344796
1.104 -0.48001 0.99884993
1.12221 -0.49094298 1.009107
1.18846 -0.54789102 1.048996
1.1021 -0.55327398 1.003406
1.1126699 -0.56396997 1.0110409
1.11396 -0.575688 1.012553
1.0868 -0.59659201 1.001521
1.06233 -0.60584599 0.99068797
1.1158299 -0.547104 1.0014189
1.10671 -0.55429 0.99876297
1.11727 -0.565974 1.0059971
1.11763 -0.57562399 1.0056939
1.11127 -0.58550096 1.004451
1.12456 -0.479298 0.99203992
1.11567 -0.56488401 0.99655294
1.1152101 -0.57664102 0.996176
1.11508 -0.58504397 0.99739593
1.1214299 -0.57762796 0.99148297
1.02992 -0.62296396 1.003342
1.03486 -0.62502897 0.99868196
1.12836 -0.56241 1.077197
1.1123 -0.56694597 1.0724009
1.1057 -0.57671797 1.0729519
1.1402301 -0.56499201 1.0765439
1.1353 -0.57274199 1.076766
1.11815 -0.57902402 1.071851
1.12245 -0.59136701 1.0741169
1.11869 -0.60348701 1.074301
1.1190699 -0.61595702 1.078341
1.11333 -0.62310296 1.074737
1.14592 -0.56633204 1.0726849
1.14086 -0.57302099 1.071582
1.1325099 -0.58260101 1.070069
1.12456 -0.59381098 1.0673939
1.11919 -0.60497302 1.0659649
1.1139801 -0.61432499 1.067423
1.10322 -0.619959 1.061693
1.1397001 -0.56498098 1.062508
1.13194 -0.57253599 1.0587579
1.12595 -0.583785 1.0585229
1.11772 -0.59365499 1.0560719
1.1108201 -0.60291499 1.053974
1.1115201 -0.61352801 1.057847
1.0929 -0.61603498 1.048967
1.01615 -0.61369801 1.009163
1.12396 -0.560669 1.045952
1.11289 -0.56553298 1.0396619
1.1152201 -0.57790899 1.0440489
1.12265 -0.592197 1.050841
1.1152301 -0.60127604 1.0481859
1.1072299 -0.61077303 1.046618
1.03811 -0.608226 1.011776
1.10794 -0.55543101 1.028291
1.10604 -0.56302297 1.028729
1.1109101 -0.57503599 1.033161
1.11167 -0.58861697 1.036662
1.10166 -0.59882098 1.0332409
1.07739 -0.60499197 1.0225329
1.04182 -0.60878897 1.0056649
1.10516 -0.55478799 1.017543
1.1057299 -0.56429696 1.020864
1.11169 -0.579184 1.0262929
1.11064 -0.59115499 1.028491
1.05056 -0.60946798 1.0006219
1.0318 -0.61728597 0.99484497
1.10009 -0.553469 1.006861
1.09973 -0.56210798 1.0085
1.10917 -0.57700098 1.01615
1.1078 -0.58942002 1.0188589
1.07092 -0.602938 1.001531
1.05179 -0.608266 0.99295592
1.0443 -0.618047 0.99287498
1.09868 -0.56266701 0.99934995
1.10919 -0.576693 1.00726
1.10338 -0.58755898 1.007919
1.09144 -0.59667099 1.002342
1.0656199 -0.60089403 0.990493
1.1054599 -0.56624502 0.99438292
1.10245 -0.57456499 0.99428797
1.10136 -0.58674902 0.99789298
1.08784 -0.59497499 0.99182492
1.11344 -0.57026201 0.99034601
1.11078 -0.57793999 0.99084097
1.1320601 -0.52785403 1.074594
1.1509 -0.53667098 1.077799
1.1516401 -0.547521 1.079303
1.1374199 -0.56827801 1.078951
1.12783 -0.57748199 1.076159
1.12481 -0.58932298 1.0780929
1.1237301 -0.60293096 1.07972
1.10771 -0.618523 1.076017
1.09814 -0.62326503 1.0729359
1.1485 -0.52331197 1.0639499
1.16004 -0.539428 1.073133
1.15947 -0.55012399 1.0757619
1.15081 -0.55794996 1.0738569
1.14423 -0.56935501 1.073009
1.1421601 -0.58131301 1.075842
1.13035 -0.58937198 1.071808
1.1245099 -0.60110998 1.0711819
1.1205699 -0.61298001 1.0736569
1.10548 -0.61699402 1.0678979
1.16795 -0.53145301 1.0670609
1.16761 -0.54065603 1.067488
1.1486499 -0.55949998 1.065581
1.1334 -0.56550497 1.0584689
1.13398 -0.579629 1.0632859
1.12679 -0.59143502 1.0622479
1.1221299 -0.60097599 1.062374
1.1188301 -0.61001897 1.063388
1.16943 -0.51831901 1.0546119
1.17414 -0.53133798 1.060607
1.17575 -0.54293901 1.063205
1.14385 -0.55631697 1.0541149
1.11487 -0.55810905 1.040422
1.11379 -0.56958699 1.0439999
1.12077 -0.58687198 1.0499899
1.12388 -0.60132003 1.0557599
1.11766 -0.60819197 1.0524609
1.06016 -0.60779202 1.02449
1.04287 -0.61084902 1.018005
1.0340899 -0.61996603 1.015888
1.17756 -0.54559797 1.05785
1.1653199 -0.55030102 1.053427
1.11514 -0.54938203 1.031422
1.10177 -0.553541 1.026431
1.11431 -0.571459 1.0353529
1.11924 -0.58804297 1.040673
1.12209 -0.60039902 1.046044
1.11085 -0.60620701 1.0403609
1.05616 -0.60506201 1.015713
1.04119 -0.61163503 1.011747
1.0327899 -0.62133002 1.008922
1.17732 -0.53158599 1.045872
1.1581199 -0.54474902 1.041366
1.1009899 -0.54453599 1.016191
1.10939 -0.55796099 1.0226159
1.1122899 -0.57195097 1.0252969
1.11387 -0.58526099 1.029734
1.10999 -0.59639198 1.031657
1.09331 -0.60324103 1.024137
1.06629 -0.60560501 1.011807
1.0450801 -0.61178899 1.0049649
1.0293 -0.62074798 0.99815202
1.17669 -0.54292601 1.042771
1.10396 -0.55549198 1.0117459
1.10648 -0.56762004 1.013508
1.11016 -0.58296502 1.018818
1.10795 -0.59590101 1.022149
1.06424 -0.60564798 1.0030069
1.0466599 -0.61308998 0.99684
1.1072899 -0.55791599 1.004478
1.10937 -0.56834501 1.005794
1.10717 -0.57971102 1.007699
1.0880101 -0.60165101 1.004221
1.06121 -0.60507101 0.99381602
1.11142 -0.55901098 0.99633193
1.11177 -0.57098997 0.99925798
1.10808 -0.58346903 0.999973
1.08683 -0.59928799 0.99441397
1.11694 -0.56234199 0.99138296
1.11491 -0.57384998 0.99323195
1.11323 -0.583911 0.993285
1.10115 -0.59189898 0.99056697
1.07054 -0.61765498 1.078161
1.07051 -0.60959202 1.079573
1.05497 -0.63125402 1.0655199
1.07149 -0.61699998 1.072585
1.0624 -0.61472803 1.069119
1.0740499 -0.61543703 1.068187
1.04908 -0.62076199 1.059418
1.06182 -0.62133098 1.059378
1.0563301 -0.51199299 0.99143195
1.06741 -0.499542 0.99156493
1.06586 -0.49273801 0.99111295
1.06589 -0.48235101 0.99064696
1.1026599 -0.47992402 0.99484199
1.08435 -0.46445599 0.99210495
1.06125 -0.59720904 1.0791939
1.0573601 -0.58962101 1.0783479
1.07954 -0.60962898 1.078612
1.06932 -0.603383 1.0755119
1.06116 -0.59582198 1.073216
1.05914 -0.58823502 1.072439
1.09023 -0.61428797 1.0759959
1.07582 -0.61000097 1.0717889
1.06932 -0.60208398 1.0694929
1.05987 -0.594733 1.067421
1.0611 -0.58763301 1.0677249
1.0770301 -0.57674998 1.07506
1.09574 -0.61375099 1.071969
1.07253 -0.61163199 1.0639999
1.05971 -0.60495204 1.059953
1.06636 -0.59413505 1.064229
1.05293 -0.590864 1.059086
1.09071 -0.61491001 1.0649669
1.07453 -0.61199099 1.0589459
1.06296 -0.60641801 1.055822
1.05808 -0.597767 1.05585
1.04566 -0.59336901 1.052189
1.07426 -0.61791599 1.0547299
1.0690399 -0.61195201 1.05325
1.0595601 -0.60605502 1.051055
1.0515699 -0.47287202 1.030625
1.04554 -0.57682699 1.0159919
1.0517 -0.55754697 1.019461
1.06935 -0.54521 1.026073
1.0353 -0.47949001 1.0210509
1.02689 -0.476594 1.019323
1.01836 -0.59355301 1.0009099
1.0414801 -0.57870001 1.010066
1.04125 -0.57119298 1.010038
1.04151 -0.56218898 1.0111181
1.05116 -0.55097699 1.0155749
1.06792 -0.53902602 1.022296
1.03344 -0.48185903 1.0149809
1.03908 -0.473499 1.0187249
1.02984 -0.58255202 1.0009069
1.0274199 -0.573829 1.00111
1.0247899 -0.56597197 1.000366
1.0309 -0.491418 1.007408
1.02281 -0.48700002 1.006353
1.0472599 -0.49701899 1.005833
1.02422 -0.49421397 1.0003849
1.01565 -0.49039298 0.99862099
1.0561 -0.49365002 1.002831
1.03784 -0.49113202 0.99877596
1.02707 -0.48725301 0.99701399
1.07446 -0.49430001 1.003425
1.0623699 -0.49072102 0.99925399
1.0561399 -0.48517799 0.99849492
1.03987 -0.48353001 0.99510103
1.0674701 -0.48848099 0.99564391
1.06262 -0.483266 0.99526197
1.06406 -0.475326 0.99596298
1.08463 -0.48130599 0.99472201
1.07347 -0.47865799 0.99288499
1.0710601 -0.47144198 0.99140704
1.10579 -0.47354999 0.99628395
1.10421 -0.44718897 0.99431795
1.18829 -0.53369403 1.0718139
1.19556 -0.54472601 1.0701909
1.18056 -0.55620801 1.0738809
1.16326 -0.56840497 1.079407
1.19251 -0.546987 1.066232
1.18027 -0.55669498 1.068959
1.1681501 -0.56623501 1.0723859
1.16466 -0.57824796 1.073692
1.15777 -0.58983201 1.07447
1.14876 -0.60084897 1.07765
1.18354 -0.55553699 1.062399
1.18124 -0.56558299 1.0634329
1.17215 -0.57584304 1.065208
1.16079 -0.58785802 1.0671359
1.14825 -0.599401 1.070733
1.1346099 -0.60944402 1.074648
1.1125901 -0.61737299 1.079307
1.18908 -0.55420101 1.054482
1.17689 -0.56653804 1.057519
1.16931 -0.57821798 1.0595499
1.1571701 -0.58804899 1.0609419
1.15425 -0.59832501 1.062917
1.13476 -0.60837698 1.0678129
1.1079201 -0.61613101 1.0737369
1.19116 -0.54529303 1.0488229
1.16685 -0.556584 1.053087
1.1582299 -0.566576 1.054799
1.16294 -0.57732099 1.054709
1.1541001 -0.58688098 1.055313
1.14939 -0.59814501 1.0573219
1.13065 -0.60765803 1.0622129
1.1841 -0.53580499 1.046441
1.13723 -0.55574101 1.052686
1.15141 -0.56470299 1.05046
1.15359 -0.57561898 1.049917
1.15151 -0.58759803 1.049734
1.14203 -0.59711301 1.0520619
1.1258 -0.55516398 1.049212
1.14419 -0.56452101 1.0454789
1.1545501 -0.57651502 1.042567
1.1554101 -0.58742696 1.042128
1.1358399 -0.59461099 1.0464519
1.1302201 -0.55506802 1.042249
1.1497899 -0.56523496 1.0371079
1.1546299 -0.576774 1.035641
1.15791 -0.58643502 1.034827
1.11747 -0.53908402 1.0360199
1.1331 -0.55271399 1.033985
1.1508 -0.565575 1.029827
1.15597 -0.57709002 1.028291
1.1587 -0.58544201 1.0279549
1.15501 -0.56717604 1.022261
1.15681 -0.57680804 1.0218281
1.15693 -0.58448297 1.0217609
1.14968 -0.56395 1.016727
1.15753 -0.57618099 1.0151809
1.15406 -0.58419698 1.0158219
1.1553501 -0.55545801 1.009293
1.1552501 -0.56696302 1.0093039
1.15773 -0.57649201 1.0086459
1.15166 -0.58373904 1.0096099
1.13302 -0.53078604 1.0066429
1.1503 -0.55335802 1.0039899
1.15446 -0.56460202 1.003531
1.15368 -0.57513499 1.003248
1.11199 -0.52972198 1.005087
1.1342 -0.54071099 1.0005
1.1447101 -0.551691 0.99905294
1.14957 -0.56374699 0.99790794
1.15297 -0.57593399 0.99605197
1.12527 -0.58546299 0.99960196
1.11348 -0.53051001 0.99952501
1.12818 -0.54124802 0.99599701
1.1444401 -0.55299598 0.99298495
1.15223 -0.56561798 0.990367
1.14738 -0.57663298 0.99041098
1.1207 -0.58631098 0.99405098
1.08331 -0.59658599 1.0007939
1.05907 -0.60787898 1.004019
1.0872 -0.59518301 0.99447095
1.0648301 -0.60718602 0.99776495
1.04351 -0.61820298 1.0009069
1.07392 -0.596789 0.990412
1.0573601 -0.60719699 0.99237597
1.05238 -0.61945301 0.99310899
1.18168 -0.52781302 1.0784069
1.1937699 -0.53950602 1.0746239
1.1979799 -0.54007703 1.0682999
1.18559 -0.549124 1.071577
1.1721801 -0.55897301 1.074221
1.15917 -0.571096 1.077175
1.1576 -0.58170897 1.077793
1.1503 -0.60105401 1.079124
1.1921901 -0.54989702 1.0639939
1.18019 -0.55942702 1.0666209
1.16906 -0.56999499 1.0688109
1.1618199 -0.58108598 1.070529
1.15446 -0.591308 1.073024
1.14631 -0.60230803 1.0731
1.1349701 -0.61119998 1.0753959
1.1948301 -0.54847401 1.0572569
1.18344 -0.55848497 1.05952
1.1715699 -0.56941301 1.0614079
1.16221 -0.57993102 1.063774
1.15557 -0.59180498 1.0655099
1.14362 -0.60110301 1.067516
1.13933 -0.609963 1.068188
1.11516 -0.61562198 1.0743641
1.18387 -0.54819304 1.0540199
1.16993 -0.56024599 1.056486
1.16491 -0.57021302 1.05634
1.16676 -0.57950503 1.056415
1.15557 -0.588974 1.0585239
1.14579 -0.60027099 1.060658
1.12885 -0.607889 1.0640661
1.15465 -0.56865299 1.053014
1.1576101 -0.57911098 1.051847
1.1551 -0.590837 1.051743
1.1335601 -0.59881902 1.056338
1.1137 -0.60453802 1.060735
1.14977 -0.56907004 1.0462329
1.15464 -0.58060503 1.0458649
1.14587 -0.58955199 1.047148
1.12569 -0.59622401 1.051947
1.12159 -0.55427396 1.0458339
1.1454799 -0.565862 1.040059
1.14732 -0.57763302 1.040372
1.1469899 -0.58824503 1.0400109
1.11218 -0.51398802 1.0400319
1.11454 -0.52328199 1.0392359
1.11599 -0.53502101 1.038998
1.1298699 -0.55168599 1.0372949
1.14641 -0.56601602 1.033679
1.1482199 -0.57828701 1.0326259
1.1531301 -0.58795398 1.0319099
1.11278 -0.48945498 1.0337869
1.1112599 -0.49843898 1.034222
1.13472 -0.55248404 1.02976
1.1479 -0.56712198 1.026351
1.15038 -0.57818902 1.024824
1.1503299 -0.58651799 1.0261229
1.11879 -0.48988497 1.0274019
1.14103 -0.55460799 1.02121
1.15263 -0.568977 1.018764
1.15775 -0.57937402 1.017476
1.1543599 -0.58636904 1.018016
1.1438301 -0.564138 1.0141879
1.15046 -0.57710898 1.012818
1.1216301 -0.52533501 1.011797
1.1437401 -0.55315202 1.008454
1.14879 -0.56631899 1.006436
1.14905 -0.57806301 1.005724
1.12124 -0.50151002 1.0070969
1.09575 -0.50817698 1.010886
1.0913301 -0.51644903 1.011189
1.1436499 -0.55474204 1.001289
1.1511799 -0.56791997 0.99859202
1.14103 -0.57790697 1.000614
1.11775 -0.49146599 1.0024459
1.092 -0.49708501 1.005506
1.0578099 -0.50130403 1.0106239
1.14592 -0.546552 0.99538499
1.15089 -0.55627203 0.99291694
1.1472499 -0.56540102 0.99241292
1.1456 -0.57632101 0.99315292
1.1321499 -0.58463299 0.99562997
1.0716799 -0.59435397 1.0032279
1.05257 -0.60373801 1.006907
1.03846 -0.61167699 1.009418
1.09369 -0.48943803 0.99958199
1.06539 -0.49359101 1.0033159
1.03493 -0.50550699 1.008395
1.1122299 -0.58574599 0.99154592
1.07428 -0.59338003 0.99770701
1.06304 -0.60372901 1.000018
1.0425299 -0.61242801 1.0038019
1.0288 -0.61947 1.006057
1.0775499 -0.49615002 0.99577498
1.03623 -0.50540197 1.001902
1.07838 -0.59079498 0.99106401
1.06679 -0.60246497 0.99260402
1.0580699 -0.61408401 0.99464196
1.0357701 -0.621898 0.99811292
1.04292 -0.49857497 0.99617404
1.1834301 -0.52780402 1.0767879
1.18308 -0.53720599 1.07636
1.17853 -0.548419 1.076736
1.16729 -0.559039 1.078873
1.1937699 -0.54228097 1.0689999
1.1883999 -0.55126202 1.0699199
1.18099 -0.56044 1.070484
1.1665599 -0.56991696 1.0740039
1.1554101 -0.57933104 1.077264
1.15747 -0.59248298 1.074935
1.14818 -0.60240799 1.076535
1.1432 -0.61222398 1.0781789
1.18595 -0.55054998 1.06494
1.17985 -0.56036401 1.063924
1.17168 -0.57033199 1.066057
1.16477 -0.58205396 1.0678519
1.1570899 -0.59254903 1.068181
1.15516 -0.60221601 1.0689009
1.1400399 -0.60958695 1.071937
1.1221601 -0.61546701 1.075668
1.18785 -0.550587 1.056762
1.18655 -0.562199 1.05626
1.17237 -0.56907701 1.0592279
1.1659501 -0.58064604 1.0599629
1.16356 -0.592305 1.060926
1.14834 -0.60139704 1.063597
1.13419 -0.60990298 1.066746
1.11711 -0.614178 1.0692439
1.16343 -0.556768 1.055406
1.16634 -0.57033902 1.054296
1.1557499 -0.57937598 1.0548069
1.15592 -0.59156698 1.0556979
1.14729 -0.60123003 1.057035
1.13684 -0.60924602 1.059186
1.1129 -0.61241901 1.0637009
1.18045 -0.53647304 1.046801
1.159 -0.54469001 1.051546
1.1507801 -0.55532002 1.0518539
1.14855 -0.56608701 1.051512
1.1457599 -0.57729197 1.0504841
1.14739 -0.58826602 1.050841
1.1467199 -0.60031199 1.0507909
1.13269 -0.60760099 1.052871
1.14037 -0.56370699 1.04723
1.14289 -0.57483101 1.045175
1.14296 -0.588018 1.0445629
1.14706 -0.60151601 1.043694
1.12234 -0.60375398 1.047588
1.13863 -0.565458 1.0402369
1.14864 -0.57853299 1.0363289
1.14398 -0.58854401 1.037315
